7.895317099999999977e-01	7.941529800000000083e-01	8.207150100000000226e-01	7.881464400000000037e-01	8.766980199999999668e-01	9.570532999999999957e-01	9.598075200000000251e-01	9.921435699999999747e-01	1.089559100000000003e+00	1.144141300000000028e+00	1.087612000000000023e+00	1.197011100000000106e+00	1.267748700000000062e+00	1.270482200000000006e+00	1.393307599999999979e+00	1.467639200000000033e+00	1.538229700000000033e+00	1.541630899999999915e+00	1.457889200000000107e+00	1.549521300000000101e+00	1.480484600000000039e+00	1.433492100000000047e+00	1.463110899999999992e+00	1.308731899999999948e+00	1.294959299999999924e+00	1.227943699999999971e+00	1.293571199999999921e+00	1.202985600000000099e+00	1.188108100000000000e+00	1.124131100000000050e+00	1.054076100000000071e+00	1.001308800000000110e+00	9.208624399999999488e-01	9.736517700000000275e-01	9.379807100000000508e-01	8.863222600000000284e-01	8.777090899999999696e-01	8.881298300000000090e-01	8.500604600000000177e-01	9.109503599999999590e-01	8.889810400000000001e-01	9.345633399999999646e-01	8.908535800000000338e-01	9.372106199999999943e-01	8.368654800000000504e-01	8.516491099999999870e-01	8.188492699999999624e-01	7.513222099999999903e-01	6.915007199999999576e-01	7.310960899999999762e-01	6.822811399999999527e-01	6.290461400000000314e-01	6.184887300000000421e-01	6.380128900000000547e-01	5.987448100000000162e-01	6.162527799999999445e-01	5.666003200000000462e-01	5.637931200000000365e-01	6.373385799999999879e-01	6.754090200000000266e-01	6.721904899999999738e-01	7.049579599999999946e-01	6.413889499999999577e-01	6.819787600000000172e-01	6.466333899999999746e-01	6.817555400000000487e-01	6.296175699999999598e-01	5.991349200000000152e-01	6.241050399999999998e-01	5.670555800000000035e-01	4.782573299999999805e-01	4.444941900000000112e-01	4.192476600000000220e-01	4.218923199999999873e-01	4.084875299999999876e-01	3.687561799999999890e-01	3.571053699999999775e-01	3.526396199999999870e-01	3.594608599999999932e-01	3.433511300000000044e-01	3.339636599999999955e-01	3.885755799999999760e-01	3.372542599999999724e-01	4.347927300000000161e-01	4.196630700000000269e-01	4.707302199999999770e-01	3.889015599999999795e-01	4.518116999999999828e-01	4.728283300000000189e-01	4.633570000000000189e-01	4.644448199999999805e-01	5.460985299999999709e-01	5.819067399999999779e-01	5.719689700000000210e-01	5.425921099999999608e-01	5.407169499999999740e-01	5.265935699999999553e-01	5.251629399999999670e-01	4.721217999999999804e-01	4.610720600000000058e-01	4.577425700000000153e-01	4.859018900000000030e-01	4.821268000000000220e-01	4.289959400000000200e-01	4.180129499999999942e-01	4.084534899999999746e-01	3.705952200000000030e-01	3.491851400000000050e-01	3.393912299999999882e-01	3.198055000000000203e-01	3.226709999999999856e-01	2.834972700000000234e-01	2.501824200000000165e-01	2.548578400000000022e-01	2.699015100000000111e-01	2.802042699999999775e-01	2.633531700000000253e-01	2.755613000000000090e-01	2.434770199999999885e-01
7.860418599999999811e-01	8.064656300000000444e-01	8.252758399999999828e-01	7.829830100000000348e-01	8.657557399999999959e-01	9.366726899999999745e-01	9.393457800000000191e-01	9.496793199999999935e-01	1.041979400000000000e+00	1.067173399999999939e+00	1.047626699999999911e+00	1.118739799999999951e+00	1.173442400000000108e+00	1.165851699999999935e+00	1.314028900000000055e+00	1.403708600000000084e+00	1.432480299999999929e+00	1.429417799999999961e+00	1.370782100000000003e+00	1.498209799999999925e+00	1.371240100000000073e+00	1.344046800000000097e+00	1.362968900000000039e+00	1.262698300000000051e+00	1.254812999999999956e+00	1.210724899999999993e+00	1.287384700000000048e+00	1.169809499999999947e+00	1.169402800000000076e+00	1.132944900000000032e+00	1.019121600000000072e+00	9.956128600000000439e-01	9.163159100000000112e-01	9.481699500000000391e-01	9.230153599999999514e-01	8.680008599999999852e-01	8.759564800000000373e-01	8.455936899999999534e-01	8.315127500000000227e-01	8.870829300000000472e-01	9.012168600000000085e-01	9.483059000000000349e-01	9.121350000000000291e-01	9.255063500000000332e-01	8.518516400000000210e-01	8.504072999999999771e-01	8.409210400000000085e-01	8.092066599999999665e-01	7.218644600000000411e-01	7.281037000000000203e-01	6.502163399999999482e-01	6.625100400000000223e-01	6.317237599999999675e-01	6.579377100000000089e-01	6.068913299999999511e-01	6.270796699999999779e-01	5.912619799999999648e-01	6.226157500000000233e-01	7.078487300000000371e-01	7.271898999999999447e-01	7.135090200000000493e-01	7.897999300000000389e-01	7.267813699999999821e-01	7.325097900000000495e-01	7.022566799999999665e-01	7.341288299999999545e-01	6.790443099999999843e-01	6.407133900000000493e-01	6.767913700000000032e-01	5.811098199999999991e-01	5.297141699999999842e-01	4.845350700000000121e-01	4.426122900000000193e-01	4.544852099999999728e-01	4.366795700000000169e-01	3.711834299999999809e-01	3.672690399999999911e-01	3.422429300000000008e-01	3.657655100000000159e-01	3.503937100000000249e-01	3.182047299999999912e-01	4.097634600000000238e-01	3.457119200000000059e-01	4.173538700000000157e-01	4.294786500000000173e-01	4.912901800000000208e-01	4.131601799999999880e-01	4.574282800000000204e-01	5.133176999999999879e-01	4.754524500000000264e-01	4.795206200000000085e-01	5.649674500000000377e-01	5.984023200000000431e-01	5.727308399999999633e-01	5.549264600000000103e-01	5.514292699999999714e-01	5.127347100000000379e-01	5.207303199999999688e-01	4.813940199999999781e-01	4.501490300000000055e-01	4.334091199999999811e-01	4.559892099999999782e-01	4.354356500000000074e-01	3.746822200000000103e-01	3.943774400000000235e-01	3.510203700000000260e-01	3.403392100000000031e-01	3.096867799999999948e-01	2.947885100000000036e-01	2.866753599999999902e-01	2.813765999999999767e-01	2.561261100000000179e-01	2.164769300000000118e-01	2.337090199999999895e-01	2.328427700000000045e-01	2.406708300000000023e-01	2.234709099999999948e-01	2.310377200000000020e-01	2.172282799999999958e-01
7.903004900000000221e-01	8.292049799999999804e-01	8.191919300000000126e-01	7.943964599999999709e-01	8.587015300000000462e-01	9.090333600000000125e-01	9.202500599999999809e-01	9.144236999999999504e-01	9.828293900000000249e-01	9.811530699999999605e-01	1.019621799999999912e+00	1.068074299999999921e+00	1.099052399999999929e+00	1.115535299999999896e+00	1.244893900000000109e+00	1.331128199999999984e+00	1.315091400000000021e+00	1.335769200000000101e+00	1.317325599999999985e+00	1.431626099999999902e+00	1.307276199999999999e+00	1.269087599999999982e+00	1.298786900000000077e+00	1.228821500000000011e+00	1.212836299999999978e+00	1.240688199999999908e+00	1.251980300000000046e+00	1.199827999999999895e+00	1.160728500000000052e+00	1.124151899999999982e+00	9.919269699999999634e-01	9.993333800000000489e-01	9.217124599999999557e-01	9.163716400000000428e-01	9.090867000000000253e-01	8.737045500000000242e-01	9.113342800000000521e-01	8.333554899999999765e-01	8.436311499999999963e-01	8.916359499999999549e-01	9.239886999999999961e-01	9.561446900000000193e-01	9.214807200000000309e-01	9.242896400000000234e-01	9.080763499999999766e-01	8.688215599999999927e-01	8.620184100000000127e-01	8.527554899999999494e-01	7.495092700000000052e-01	7.181638500000000480e-01	6.407269799999999460e-01	6.853668099999999930e-01	6.776780500000000318e-01	6.958040599999999465e-01	6.188779500000000100e-01	6.753381499999999704e-01	6.349707199999999885e-01	6.824542900000000190e-01	7.695683199999999724e-01	7.577087900000000209e-01	7.587363700000000488e-01	8.490059399999999590e-01	8.043561000000000183e-01	7.962893800000000466e-01	7.576717099999999983e-01	7.891787300000000505e-01	7.326677400000000118e-01	6.920145800000000458e-01	7.035107600000000128e-01	6.109812300000000418e-01	6.016447499999999504e-01	5.133327800000000440e-01	4.841966300000000167e-01	4.893102300000000127e-01	4.597306500000000185e-01	3.840011999999999870e-01	3.798568800000000079e-01	3.454109100000000154e-01	3.590643399999999819e-01	3.379427799999999982e-01	3.296441399999999744e-01	4.181528999999999940e-01	3.488615800000000045e-01	4.155252600000000074e-01	4.390637900000000093e-01	4.953489300000000206e-01	4.312490199999999829e-01	4.753857899999999748e-01	5.535721200000000009e-01	4.829985199999999868e-01	4.935970599999999764e-01	5.845082999999999807e-01	6.374231599999999887e-01	5.795599799999999746e-01	5.520456400000000041e-01	5.561847699999999950e-01	5.053764600000000273e-01	5.227251099999999928e-01	5.071535099999999741e-01	4.544297199999999815e-01	4.217694699999999797e-01	4.397863399999999978e-01	4.053450800000000243e-01	3.370177699999999943e-01	3.738073100000000037e-01	3.116357599999999839e-01	3.023861600000000149e-01	2.964091899999999891e-01	2.553358700000000203e-01	2.524319899999999950e-01	2.423787400000000092e-01	2.323651300000000031e-01	1.874065099999999984e-01	2.060729900000000114e-01	1.996531300000000120e-01	2.007745200000000119e-01	1.838856000000000102e-01	1.937879200000000024e-01	1.922776599999999891e-01
8.011244499999999880e-01	8.190260499999999499e-01	8.208667600000000286e-01	7.890475999999999601e-01	8.402544899999999650e-01	8.847887500000000127e-01	8.943247199999999619e-01	8.615818600000000327e-01	9.060055599999999876e-01	9.217768899999999599e-01	9.809445100000000473e-01	1.032859200000000088e+00	1.045000600000000057e+00	1.089399299999999959e+00	1.163206799999999985e+00	1.254064199999999962e+00	1.198750900000000064e+00	1.260534299999999996e+00	1.252439000000000080e+00	1.331571700000000025e+00	1.268813799999999992e+00	1.217046899999999932e+00	1.265922100000000050e+00	1.222881600000000013e+00	1.195400599999999924e+00	1.263474500000000056e+00	1.230848100000000001e+00	1.213154099999999902e+00	1.169432299999999980e+00	1.115833199999999970e+00	9.774662299999999915e-01	9.810097199999999740e-01	9.339679499999999912e-01	9.361889399999999695e-01	8.904117900000000363e-01	8.825780699999999923e-01	9.557344899999999921e-01	8.376948800000000306e-01	8.717024899999999965e-01	9.290240400000000509e-01	9.672250700000000201e-01	9.523925800000000441e-01	9.138936399999999516e-01	9.431545099999999460e-01	9.692712399999999784e-01	9.031664099999999751e-01	8.917682200000000003e-01	8.697308299999999548e-01	8.093914399999999620e-01	7.307964599999999811e-01	6.768800600000000056e-01	6.992159500000000305e-01	7.218251799999999552e-01	7.324559099999999878e-01	6.565835500000000158e-01	7.392635300000000020e-01	7.038974799999999643e-01	7.363523199999999491e-01	8.160823000000000382e-01	7.907369699999999835e-01	8.103867799999999733e-01	8.937122199999999461e-01	8.782804600000000406e-01	8.547398400000000285e-01	8.288102099999999917e-01	8.365630499999999747e-01	8.031224000000000141e-01	7.513218499999999578e-01	7.303363099999999886e-01	6.628270699999999627e-01	6.682764300000000324e-01	5.405817600000000223e-01	5.076008400000000531e-01	5.153506399999999710e-01	4.792306100000000013e-01	3.952864999999999851e-01	3.836214499999999750e-01	3.697585500000000192e-01	3.596864000000000172e-01	3.431832499999999953e-01	3.684638399999999869e-01	4.106661699999999970e-01	3.652485599999999999e-01	4.366867199999999727e-01	4.578552799999999756e-01	5.045210100000000475e-01	4.657175800000000199e-01	4.983608700000000113e-01	5.918549899999999697e-01	4.958200799999999964e-01	5.123868599999999995e-01	6.077189400000000408e-01	6.504167899999999669e-01	5.780966300000000002e-01	5.587477699999999770e-01	5.788874000000000519e-01	5.103220299999999821e-01	5.239686999999999539e-01	5.261551100000000369e-01	4.615421599999999791e-01	4.081739200000000234e-01	4.398059000000000274e-01	3.954025500000000193e-01	3.090482399999999741e-01	3.501943100000000086e-01	2.791281299999999743e-01	2.660500399999999876e-01	2.856082899999999869e-01	2.223460100000000106e-01	2.221824500000000036e-01	2.226427199999999884e-01	2.112353299999999989e-01	1.672026699999999977e-01	1.645814800000000022e-01	1.670457099999999862e-01	1.657421099999999980e-01	1.530016200000000048e-01	1.575185400000000124e-01	1.634565400000000113e-01
8.113428400000000096e-01	8.020957100000000173e-01	7.870971599999999624e-01	7.740597700000000359e-01	8.307545200000000518e-01	8.663638799999999751e-01	8.807089299999999454e-01	8.005799700000000296e-01	8.509900000000000242e-01	8.884324999999999584e-01	9.424067099999999808e-01	9.874287800000000059e-01	9.865554600000000507e-01	1.067544100000000107e+00	1.073060799999999926e+00	1.182611800000000102e+00	1.100102899999999995e+00	1.189502999999999977e+00	1.198694600000000055e+00	1.232793500000000098e+00	1.221513499999999919e+00	1.173969100000000099e+00	1.243078700000000092e+00	1.206936599999999915e+00	1.191454800000000036e+00	1.248402400000000023e+00	1.246733700000000056e+00	1.212560099999999919e+00	1.191703600000000085e+00	1.106488600000000044e+00	9.945597600000000149e-01	9.628171899999999894e-01	9.730212099999999698e-01	9.861016900000000307e-01	9.072737100000000110e-01	9.174783199999999583e-01	9.770600200000000291e-01	8.854510799999999460e-01	9.393953099999999834e-01	9.675825200000000015e-01	1.020491199999999932e+00	9.782841199999999793e-01	9.399679899999999755e-01	9.644451699999999628e-01	1.022385400000000111e+00	9.284502900000000114e-01	9.157947300000000013e-01	9.193093799999999538e-01	8.886781299999999550e-01	7.657267500000000116e-01	7.173046499999999881e-01	7.295416000000000123e-01	7.675650699999999604e-01	7.673704599999999765e-01	6.976796400000000453e-01	7.944335900000000228e-01	7.739013999999999616e-01	7.831632499999999775e-01	8.401081000000000243e-01	8.104966900000000196e-01	8.662056299999999487e-01	9.316343700000000450e-01	9.102987599999999846e-01	9.002822600000000008e-01	8.903238199999999880e-01	8.971291200000000021e-01	8.439613000000000254e-01	8.052949299999999644e-01	7.681797700000000395e-01	7.075172699999999759e-01	6.999632099999999468e-01	5.841590199999999733e-01	5.226536400000000304e-01	5.302763000000000337e-01	4.968477800000000166e-01	4.026643599999999990e-01	4.055401699999999776e-01	3.869755899999999804e-01	3.794556000000000040e-01	3.718636599999999848e-01	3.991361600000000176e-01	4.251124299999999856e-01	4.059079299999999724e-01	4.757129500000000233e-01	4.782416199999999784e-01	5.345520999999999745e-01	5.141806599999999561e-01	5.148944899999999825e-01	6.044179800000000213e-01	5.196672700000000145e-01	5.425443100000000296e-01	6.240132499999999638e-01	6.478987299999999783e-01	5.793670400000000553e-01	5.837247399999999642e-01	5.955867200000000139e-01	5.107928499999999650e-01	5.338003599999999738e-01	5.342296399999999501e-01	4.496165799999999879e-01	4.033667100000000172e-01	4.404818400000000134e-01	3.824456600000000206e-01	2.872927499999999856e-01	3.189987799999999818e-01	2.584399000000000002e-01	2.355017500000000097e-01	2.528248100000000109e-01	1.889329999999999898e-01	1.907497200000000115e-01	2.026834600000000097e-01	1.981869900000000073e-01	1.468787599999999971e-01	1.367167200000000138e-01	1.350942099999999924e-01	1.471465100000000081e-01	1.342047899999999905e-01	1.289345199999999969e-01	1.407642400000000127e-01
8.052427199999999674e-01	7.888382699999999526e-01	7.451472900000000177e-01	7.594676000000000204e-01	8.371651799999999533e-01	8.487855800000000395e-01	8.713189999999999547e-01	7.563225000000000087e-01	8.251041799999999649e-01	8.513361200000000295e-01	9.099103200000000502e-01	9.355505100000000018e-01	9.331820600000000354e-01	1.028298399999999946e+00	9.729427699999999568e-01	1.111999799999999983e+00	1.038881500000000013e+00	1.096172900000000006e+00	1.124192199999999975e+00	1.185678999999999927e+00	1.183962500000000029e+00	1.129316599999999893e+00	1.202034599999999953e+00	1.185148499999999938e+00	1.171584699999999923e+00	1.227711299999999950e+00	1.253537300000000076e+00	1.210768899999999926e+00	1.206984899999999916e+00	1.129192500000000043e+00	1.043825500000000073e+00	9.852039799999999792e-01	1.039229299999999911e+00	1.037230499999999944e+00	9.587778999999999607e-01	9.720572200000000551e-01	1.001627199999999940e+00	9.956286500000000039e-01	1.042599899999999913e+00	1.024435999999999902e+00	1.071674299999999969e+00	1.050612399999999891e+00	9.856665700000000196e-01	1.002527500000000016e+00	1.061265899999999984e+00	9.624479400000000018e-01	9.443451200000000378e-01	9.983815000000000328e-01	9.450284199999999801e-01	8.076111099999999654e-01	7.450165199999999599e-01	7.872099299999999467e-01	8.237139599999999673e-01	8.139868399999999893e-01	7.491413999999999573e-01	8.430808199999999530e-01	8.326673500000000283e-01	8.509277699999999722e-01	8.536403799999999764e-01	8.379114300000000126e-01	9.154412200000000555e-01	9.818261299999999636e-01	9.499828200000000056e-01	9.576572800000000552e-01	9.267651399999999873e-01	9.435288899999999535e-01	8.699729400000000279e-01	8.713985100000000150e-01	8.147973400000000366e-01	7.561827899999999936e-01	7.333047999999999789e-01	6.111193299999999606e-01	5.419706100000000193e-01	5.553629399999999716e-01	5.113632099999999570e-01	4.204211800000000054e-01	4.471758900000000203e-01	4.041757000000000266e-01	4.031389699999999854e-01	4.062821600000000033e-01	4.195506299999999800e-01	4.472981699999999949e-01	4.463484300000000182e-01	5.042665600000000303e-01	4.976457100000000189e-01	5.538862900000000034e-01	5.531991099999999939e-01	5.279545799999999511e-01	5.956741599999999526e-01	5.562432400000000277e-01	5.741282699999999961e-01	6.192992899999999468e-01	6.400819399999999604e-01	5.999937100000000134e-01	5.999678999999999984e-01	5.968791199999999852e-01	5.091105099999999606e-01	5.314737000000000489e-01	5.212871399999999822e-01	4.247465699999999900e-01	3.999535699999999805e-01	4.193041299999999971e-01	3.617638599999999927e-01	2.823624900000000215e-01	2.889145300000000027e-01	2.452720599999999862e-01	2.136513700000000071e-01	2.127254500000000104e-01	1.670625400000000094e-01	1.641973399999999972e-01	1.732504699999999898e-01	1.716749700000000101e-01	1.234597499999999931e-01	1.148530799999999963e-01	1.065089599999999997e-01	1.361494500000000052e-01	1.195547700000000046e-01	1.089573499999999945e-01	1.220861899999999972e-01
7.895784999999999609e-01	7.603406299999999618e-01	7.321705800000000153e-01	7.305487999999999982e-01	8.411606000000000360e-01	8.147330900000000486e-01	8.516046999999999922e-01	7.309430799999999673e-01	8.046117999999999881e-01	8.199183899999999969e-01	8.776233799999999530e-01	9.115088599999999763e-01	8.881847299999999779e-01	9.604165599999999747e-01	8.860295400000000043e-01	1.040154100000000081e+00	1.015042699999999964e+00	1.018385300000000049e+00	1.055913399999999891e+00	1.136964899999999945e+00	1.138903299999999952e+00	1.083998299999999970e+00	1.143526299999999996e+00	1.172810300000000083e+00	1.163774099999999923e+00	1.215733799999999976e+00	1.231551499999999910e+00	1.218314399999999909e+00	1.186619199999999985e+00	1.156733999999999929e+00	1.100681299999999974e+00	1.040939999999999976e+00	1.080113300000000054e+00	1.082507000000000108e+00	1.029582699999999962e+00	1.035281499999999966e+00	1.060124499999999914e+00	1.111167199999999911e+00	1.132153500000000035e+00	1.084318300000000068e+00	1.143539700000000048e+00	1.138416199999999989e+00	1.064089199999999957e+00	1.052472599999999980e+00	1.112647100000000000e+00	1.021465400000000079e+00	9.910681799999999653e-01	1.065531699999999971e+00	1.010726299999999966e+00	8.655450900000000169e-01	7.823066100000000134e-01	8.275121500000000019e-01	8.628634800000000160e-01	8.697884099999999563e-01	8.298610400000000498e-01	8.751733299999999716e-01	9.108725199999999633e-01	8.922916699999999812e-01	8.799225099999999911e-01	8.871984499999999718e-01	9.707011599999999518e-01	1.061327799999999932e+00	1.013796900000000001e+00	1.010541899999999993e+00	9.644133999999999762e-01	9.812617900000000226e-01	9.211870399999999570e-01	9.304828600000000227e-01	8.430879700000000199e-01	7.896162300000000300e-01	7.570339400000000163e-01	6.276419199999999643e-01	5.679084699999999986e-01	5.756269699999999601e-01	5.350043199999999777e-01	4.541633099999999867e-01	4.831040799999999913e-01	4.344881800000000016e-01	4.225179900000000099e-01	4.352622300000000277e-01	4.260480099999999770e-01	4.794168799999999897e-01	4.653895800000000249e-01	5.121688800000000485e-01	5.181405500000000330e-01	5.600474500000000022e-01	5.734873999999999805e-01	5.400973000000000024e-01	5.969772899999999938e-01	5.867556900000000519e-01	5.904296599999999673e-01	6.051660199999999712e-01	6.250925699999999585e-01	6.159886100000000475e-01	5.926033299999999837e-01	5.992900100000000396e-01	5.221815100000000154e-01	5.223726600000000442e-01	4.925921899999999853e-01	3.931928000000000090e-01	3.871186400000000138e-01	3.891511599999999960e-01	3.418707799999999852e-01	2.928210500000000271e-01	2.665040499999999923e-01	2.270805800000000041e-01	1.998567400000000049e-01	1.746114300000000119e-01	1.577545399999999987e-01	1.369881500000000030e-01	1.414440299999999984e-01	1.438744200000000029e-01	1.021737499999999937e-01	9.910632699999999407e-02	8.815292299999999415e-02	1.194196599999999969e-01	1.073555100000000012e-01	1.033334999999999948e-01	1.055204299999999984e-01
7.538209599999999844e-01	7.296765400000000401e-01	7.352839700000000089e-01	7.035282299999999767e-01	8.289819999999999967e-01	7.814982499999999499e-01	8.115401899999999946e-01	7.133389700000000166e-01	7.830398100000000028e-01	8.166188599999999465e-01	8.466696099999999614e-01	8.724221599999999466e-01	8.575231399999999615e-01	8.722715399999999564e-01	8.312077500000000230e-01	9.760828599999999966e-01	9.926826399999999495e-01	9.954710599999999632e-01	1.015849400000000013e+00	1.077194599999999891e+00	1.097638099999999950e+00	1.058792900000000037e+00	1.093893900000000086e+00	1.172965299999999989e+00	1.158697000000000088e+00	1.219889500000000071e+00	1.235501900000000042e+00	1.257836699999999919e+00	1.202944999999999931e+00	1.193447699999999889e+00	1.150889800000000074e+00	1.105148199999999914e+00	1.096930299999999914e+00	1.145030299999999945e+00	1.098604700000000101e+00	1.107904900000000081e+00	1.121630899999999986e+00	1.164304400000000017e+00	1.175854799999999978e+00	1.134386399999999906e+00	1.216452099999999925e+00	1.236141699999999899e+00	1.156783300000000070e+00	1.138293900000000081e+00	1.189816800000000008e+00	1.103985400000000006e+00	1.059876299999999993e+00	1.112993200000000016e+00	1.088815099999999925e+00	9.125765000000000127e-01	8.515703100000000525e-01	8.676018100000000288e-01	8.907962400000000169e-01	9.211536000000000168e-01	9.222133200000000031e-01	9.356870699999999541e-01	9.715731699999999860e-01	8.968672800000000445e-01	9.012911300000000514e-01	9.351481200000000271e-01	1.024348400000000048e+00	1.144905199999999956e+00	1.051958900000000030e+00	1.064201699999999917e+00	1.018152200000000063e+00	1.006358899999999945e+00	9.746168299999999896e-01	9.520655300000000487e-01	8.608496799999999505e-01	8.211495300000000164e-01	7.665049999999999919e-01	6.504225099999999538e-01	6.093142599999999964e-01	5.831411499999999970e-01	5.484059500000000309e-01	4.881752699999999945e-01	5.029048299999999694e-01	4.783566000000000207e-01	4.409945900000000196e-01	4.585865700000000267e-01	4.431222100000000164e-01	5.160940899999999498e-01	4.866568700000000192e-01	5.149446100000000248e-01	5.289681000000000521e-01	5.659756099999999623e-01	5.814649499999999804e-01	5.636915000000000120e-01	6.036246400000000456e-01	5.997585100000000224e-01	6.111115200000000192e-01	5.991557800000000267e-01	6.149343800000000027e-01	6.074532900000000346e-01	5.797465400000000324e-01	5.980153099999999666e-01	5.407014500000000279e-01	5.164834900000000451e-01	4.609235199999999755e-01	3.744328000000000101e-01	3.716872299999999796e-01	3.557529400000000175e-01	3.219203099999999873e-01	2.919664699999999780e-01	2.404047500000000004e-01	2.153326299999999971e-01	1.784577999999999998e-01	1.484592000000000134e-01	1.408374500000000029e-01	1.197338800000000009e-01	1.099642599999999942e-01	1.208274599999999976e-01	8.217090400000000294e-02	9.940054299999999399e-02	7.554337399999999647e-02	1.071728400000000053e-01	9.235662199999999933e-02	1.082707799999999970e-01	9.974847700000000206e-02
7.024491400000000274e-01	6.951134799999999503e-01	7.245215200000000300e-01	6.986237800000000275e-01	7.991627500000000328e-01	7.530450199999999539e-01	7.735757800000000461e-01	7.024337600000000181e-01	7.578597700000000437e-01	8.051590899999999662e-01	7.990897300000000536e-01	8.248083000000000498e-01	8.336265099999999872e-01	8.119826300000000385e-01	7.843354900000000240e-01	9.136592100000000549e-01	9.377790700000000479e-01	9.673281299999999527e-01	9.933938399999999724e-01	1.031313700000000111e+00	1.089468000000000103e+00	1.045463899999999891e+00	1.085912200000000105e+00	1.197456000000000076e+00	1.161952899999999955e+00	1.235236999999999918e+00	1.251965800000000018e+00	1.301348600000000078e+00	1.243076700000000034e+00	1.236760099999999918e+00	1.211005200000000004e+00	1.186143600000000076e+00	1.106387999999999927e+00	1.194934500000000011e+00	1.157224400000000042e+00	1.159473699999999941e+00	1.213649999999999896e+00	1.194713499999999984e+00	1.227895500000000029e+00	1.184828200000000109e+00	1.283024799999999965e+00	1.313468599999999986e+00	1.263693299999999908e+00	1.243947899999999995e+00	1.282373699999999950e+00	1.177814700000000103e+00	1.162280100000000038e+00	1.159081100000000086e+00	1.137375000000000025e+00	9.736247700000000282e-01	9.281338500000000380e-01	8.981363199999999880e-01	9.166055899999999701e-01	9.612538200000000366e-01	9.661166700000000107e-01	9.981759799999999627e-01	1.007255299999999965e+00	9.323351399999999511e-01	9.363751999999999631e-01	9.759089899999999762e-01	1.035087099999999927e+00	1.182457199999999986e+00	1.081209099999999923e+00	1.098428699999999925e+00	1.054862600000000095e+00	1.013332499999999969e+00	1.017779400000000001e+00	9.448820399999999786e-01	9.028910399999999781e-01	8.580706700000000353e-01	7.946814899999999904e-01	6.924417600000000172e-01	6.598220500000000488e-01	5.866994899999999902e-01	5.789385999999999699e-01	5.092161299999999891e-01	5.257645199999999575e-01	5.253066400000000469e-01	4.475201100000000265e-01	4.874636500000000261e-01	4.777260099999999787e-01	5.347213100000000052e-01	5.093454699999999669e-01	5.079587100000000355e-01	5.415016999999999747e-01	5.608196899999999818e-01	5.799158199999999708e-01	5.951392100000000296e-01	6.144417500000000087e-01	6.053570499999999521e-01	6.436474300000000204e-01	5.971629600000000204e-01	6.188976800000000056e-01	6.027454100000000370e-01	5.663589199999999879e-01	5.877543100000000020e-01	5.400207000000000201e-01	4.941062600000000193e-01	4.317108399999999846e-01	3.739404700000000248e-01	3.675072500000000075e-01	3.232067499999999871e-01	3.005432199999999998e-01	2.744587099999999946e-01	2.103583699999999890e-01	2.007681600000000011e-01	1.598387699999999911e-01	1.390996300000000019e-01	1.210122599999999965e-01	1.161616800000000033e-01	9.038191299999999428e-02	9.736722700000000064e-02	7.236439000000000066e-02	9.451236600000000043e-02	6.885970399999999381e-02	1.000292900000000068e-01	8.237415600000000393e-02	1.184258799999999973e-01	9.237120299999999895e-02
6.637415899999999924e-01	6.544496400000000547e-01	6.848685700000000098e-01	6.939268699999999734e-01	7.510551800000000444e-01	7.397462099999999596e-01	7.374391599999999825e-01	6.736788200000000115e-01	7.217533600000000105e-01	7.962490899999999927e-01	7.633411900000000028e-01	7.916596500000000480e-01	8.026832299999999698e-01	7.673646200000000528e-01	7.519974699999999457e-01	8.874773400000000034e-01	8.899956300000000375e-01	9.384024100000000201e-01	9.885279500000000441e-01	9.951851999999999920e-01	1.082614900000000047e+00	1.054305100000000106e+00	1.084114800000000045e+00	1.205225500000000061e+00	1.181328399999999945e+00	1.279451499999999964e+00	1.257855500000000015e+00	1.352960299999999894e+00	1.302356099999999905e+00	1.262105299999999986e+00	1.267755200000000082e+00	1.269844999999999891e+00	1.148708599999999969e+00	1.234646200000000027e+00	1.203869599999999984e+00	1.218102000000000018e+00	1.294955300000000031e+00	1.238128499999999965e+00	1.296807400000000055e+00	1.261850799999999939e+00	1.353909299999999982e+00	1.354855799999999943e+00	1.371449099999999977e+00	1.332777499999999948e+00	1.323775799999999947e+00	1.226719499999999963e+00	1.262109900000000007e+00	1.202192300000000103e+00	1.166412000000000004e+00	1.036630900000000022e+00	1.007052899999999918e+00	9.463389500000000121e-01	9.668934900000000221e-01	1.016473699999999925e+00	9.814586600000000383e-01	1.005793600000000065e+00	1.030750800000000078e+00	9.562088800000000388e-01	9.680808199999999530e-01	1.009680200000000028e+00	1.041959899999999939e+00	1.165132400000000068e+00	1.131814400000000109e+00	1.093218400000000035e+00	1.066706900000000013e+00	1.047340500000000008e+00	1.077447400000000055e+00	9.565311699999999862e-01	9.557382500000000114e-01	8.849967100000000197e-01	8.461659000000000264e-01	7.409560699999999667e-01	6.921787900000000437e-01	6.241683999999999566e-01	6.033797899999999714e-01	5.388697399999999860e-01	5.546129899999999724e-01	5.610880900000000393e-01	4.592316399999999965e-01	5.228385899999999920e-01	5.120983700000000249e-01	5.387056500000000359e-01	5.259401799999999794e-01	5.117446799999999518e-01	5.600218200000000035e-01	5.743449900000000552e-01	5.781421700000000108e-01	6.212146899999999583e-01	6.290321399999999619e-01	6.332134000000000373e-01	6.500740600000000091e-01	6.082721899999999904e-01	6.138195400000000523e-01	6.113421900000000075e-01	5.448334200000000127e-01	5.641496200000000183e-01	5.264651200000000086e-01	4.601783199999999741e-01	4.145207699999999829e-01	3.631798299999999813e-01	3.391827000000000036e-01	2.950162000000000062e-01	2.757965000000000000e-01	2.589128900000000066e-01	1.777092100000000063e-01	1.858971600000000057e-01	1.466322499999999918e-01	1.366276899999999961e-01	1.120325699999999980e-01	1.127856899999999940e-01	8.373838699999999746e-02	7.871254499999999488e-02	7.573936100000000504e-02	8.519508700000000267e-02	7.116637400000000446e-02	9.134729199999999660e-02	7.718975100000000089e-02	1.216364899999999999e-01	8.649516899999999675e-02
6.389587500000000198e-01	6.306501599999999597e-01	6.463091399999999487e-01	6.665623800000000099e-01	7.267392900000000378e-01	7.055386900000000239e-01	6.983205700000000293e-01	6.396616699999999600e-01	6.961644900000000247e-01	7.771200499999999511e-01	7.326616599999999924e-01	7.623823899999999654e-01	7.768872399999999789e-01	7.330585699999999649e-01	7.529705799999999449e-01	8.654691599999999596e-01	8.427192599999999700e-01	9.315079499999999735e-01	9.878340399999999688e-01	9.891767500000000490e-01	1.072829100000000091e+00	1.074063699999999955e+00	1.119190700000000094e+00	1.207809399999999922e+00	1.191303000000000001e+00	1.324054599999999970e+00	1.278445099999999890e+00	1.416765000000000052e+00	1.377734100000000073e+00	1.302426599999999990e+00	1.286577899999999941e+00	1.332844600000000046e+00	1.211421400000000093e+00	1.281502600000000047e+00	1.263877700000000104e+00	1.286023399999999928e+00	1.339730599999999994e+00	1.289551700000000078e+00	1.326631099999999952e+00	1.355675299999999917e+00	1.436734799999999979e+00	1.397528499999999951e+00	1.453850899999999946e+00	1.399671200000000004e+00	1.329022399999999937e+00	1.263542200000000060e+00	1.319987299999999975e+00	1.225153299999999890e+00	1.169847000000000081e+00	1.086396799999999940e+00	1.071873800000000099e+00	1.008567299999999944e+00	1.023520100000000044e+00	1.069695000000000062e+00	1.014037000000000077e+00	9.952065300000000336e-01	1.025359200000000026e+00	9.408274300000000201e-01	9.946836799999999590e-01	1.012466799999999889e+00	1.057910899999999987e+00	1.132151700000000094e+00	1.144322999999999979e+00	1.090696200000000005e+00	1.095220700000000047e+00	1.101423500000000111e+00	1.113380999999999954e+00	9.809123899999999674e-01	9.959463499999999803e-01	9.048517299999999652e-01	8.742822399999999883e-01	7.921876300000000315e-01	6.961076899999999457e-01	6.748114200000000507e-01	6.161761300000000441e-01	5.811521400000000392e-01	5.948345099999999830e-01	5.983325800000000028e-01	4.978464499999999959e-01	5.666944999999999899e-01	5.377387999999999613e-01	5.392940600000000195e-01	5.340878999999999488e-01	5.232938499999999493e-01	5.830949500000000008e-01	5.720161200000000168e-01	5.792516500000000068e-01	6.111010900000000134e-01	6.243117999999999723e-01	6.540647699999999620e-01	6.275798099999999602e-01	6.187931300000000245e-01	6.023137600000000313e-01	6.124159099999999523e-01	5.319716300000000286e-01	5.327871400000000479e-01	5.123177799999999449e-01	4.245432599999999779e-01	3.988133099999999764e-01	3.356562299999999999e-01	3.110560800000000126e-01	2.710491099999999820e-01	2.546351299999999873e-01	2.408529799999999943e-01	1.513465300000000069e-01	1.749893999999999894e-01	1.292930399999999980e-01	1.306770999999999905e-01	1.042315099999999994e-01	1.032770100000000024e-01	8.032459000000000127e-02	6.824824999999999642e-02	7.847639200000000592e-02	7.903306899999999746e-02	7.627822500000000505e-02	9.067532400000000159e-02	7.250875199999999576e-02	1.164354199999999978e-01	8.950343700000000513e-02
6.105749000000000315e-01	6.120927900000000532e-01	6.093090199999999790e-01	6.332955999999999586e-01	6.946479700000000035e-01	6.637187599999999632e-01	6.633799099999999616e-01	6.167837999999999932e-01	6.715040199999999793e-01	7.428620500000000515e-01	6.994409600000000005e-01	7.401034800000000358e-01	7.490704099999999643e-01	7.146937300000000270e-01	7.411701099999999931e-01	8.498790299999999798e-01	8.135997099999999760e-01	9.296058400000000166e-01	9.661433099999999774e-01	9.856241900000000111e-01	1.088410099999999936e+00	1.077382300000000015e+00	1.149236799999999947e+00	1.233199399999999946e+00	1.204461900000000085e+00	1.338477099999999975e+00	1.323979100000000075e+00	1.456938700000000031e+00	1.412300600000000017e+00	1.371436600000000006e+00	1.295155599999999962e+00	1.377705200000000074e+00	1.270958400000000044e+00	1.314952300000000074e+00	1.328502999999999989e+00	1.342513300000000021e+00	1.378963900000000020e+00	1.335845699999999914e+00	1.353901299999999974e+00	1.401108400000000032e+00	1.510114799999999979e+00	1.440824399999999894e+00	1.531762700000000033e+00	1.437940800000000019e+00	1.353038699999999928e+00	1.307026500000000091e+00	1.340596200000000016e+00	1.242754300000000089e+00	1.168812799999999985e+00	1.101561000000000012e+00	1.104898699999999900e+00	1.054046199999999933e+00	1.064024999999999999e+00	1.097626599999999897e+00	1.047012099999999890e+00	1.014089800000000041e+00	1.010599299999999978e+00	9.167020900000000250e-01	1.010666400000000076e+00	9.927268000000000203e-01	1.091075800000000040e+00	1.110700500000000090e+00	1.137515400000000065e+00	1.069830400000000070e+00	1.120959500000000109e+00	1.126865699999999970e+00	1.102187500000000098e+00	9.933377500000000193e-01	1.021715200000000046e+00	9.226079600000000047e-01	8.807027299999999892e-01	8.100606799999999774e-01	7.145781500000000230e-01	7.087457200000000235e-01	6.372710499999999501e-01	6.175565699999999714e-01	6.460491400000000217e-01	6.412557399999999630e-01	5.370384499999999450e-01	6.168167599999999640e-01	5.609053400000000300e-01	5.527957100000000512e-01	5.559121399999999991e-01	5.201777800000000340e-01	5.995277199999999862e-01	5.681257199999999452e-01	5.883616799999999980e-01	6.087273399999999501e-01	6.150384500000000143e-01	6.519249099999999686e-01	5.849068800000000179e-01	6.198629100000000447e-01	5.959188300000000105e-01	5.842591499999999494e-01	5.343036100000000399e-01	5.097522700000000073e-01	4.842345699999999753e-01	4.123688600000000037e-01	3.721851999999999938e-01	3.189286299999999907e-01	2.976905100000000193e-01	2.507829100000000255e-01	2.331887199999999882e-01	2.157573100000000077e-01	1.336994599999999922e-01	1.583959000000000061e-01	1.127747899999999998e-01	1.210175500000000015e-01	9.966846599999999723e-02	1.000721200000000005e-01	7.884915900000000200e-02	6.912497400000000569e-02	8.792547100000000504e-02	7.526034900000000416e-02	8.196002199999999349e-02	9.615282699999999627e-02	6.304013699999999609e-02	1.081275000000000014e-01	1.006700199999999989e-01
5.801843399999999651e-01	5.873982899999999896e-01	5.985943700000000423e-01	6.030423000000000311e-01	6.434670099999999504e-01	6.402508599999999772e-01	6.362826200000000210e-01	6.025286300000000095e-01	6.456336999999999771e-01	6.971574400000000171e-01	6.639829299999999712e-01	6.953750800000000343e-01	7.199574100000000199e-01	6.992839600000000377e-01	7.256030399999999769e-01	8.382204199999999661e-01	8.076710700000000465e-01	8.933038100000000314e-01	9.337147500000000377e-01	9.753368500000000330e-01	1.070303900000000086e+00	1.062114800000000026e+00	1.171944400000000108e+00	1.246136499999999980e+00	1.197888400000000075e+00	1.330929299999999982e+00	1.363095200000000062e+00	1.463051600000000008e+00	1.418593599999999899e+00	1.421531700000000065e+00	1.329269100000000092e+00	1.407644600000000024e+00	1.305635300000000054e+00	1.372937400000000085e+00	1.373622399999999910e+00	1.370084800000000103e+00	1.409340400000000049e+00	1.395510400000000040e+00	1.433848299999999965e+00	1.428888600000000064e+00	1.573548799999999970e+00	1.467487699999999951e+00	1.571475299999999908e+00	1.475890900000000006e+00	1.385529599999999917e+00	1.373586699999999938e+00	1.381483900000000098e+00	1.273706999999999923e+00	1.216263300000000047e+00	1.117115999999999998e+00	1.122154700000000060e+00	1.110033999999999965e+00	1.097144700000000084e+00	1.111729299999999920e+00	1.065023899999999912e+00	1.008083599999999969e+00	1.006465299999999896e+00	9.196608099999999952e-01	1.006752000000000091e+00	1.003911699999999962e+00	1.095167500000000071e+00	1.116691000000000100e+00	1.140689800000000087e+00	1.024693300000000029e+00	1.108094300000000088e+00	1.116051099999999963e+00	1.071859099999999954e+00	9.949519000000000002e-01	1.036855899999999941e+00	9.345293000000000072e-01	9.211079500000000087e-01	8.125996599999999459e-01	7.269284099999999693e-01	7.314085399999999959e-01	6.764910200000000540e-01	6.552335000000000242e-01	6.789756399999999914e-01	6.326628899999999778e-01	5.873891700000000160e-01	6.513183700000000353e-01	5.721790799999999511e-01	5.765306900000000123e-01	5.871094500000000327e-01	5.311608300000000282e-01	6.160851099999999914e-01	5.661507799999999646e-01	5.888007899999999628e-01	6.185609699999999878e-01	6.169934299999999538e-01	6.308152700000000390e-01	5.650668100000000305e-01	6.102723500000000190e-01	5.630632599999999544e-01	5.600088199999999627e-01	5.438839199999999652e-01	4.829821599999999937e-01	4.649055899999999797e-01	4.051086300000000251e-01	3.425828200000000101e-01	3.115098499999999770e-01	2.777195900000000162e-01	2.362040300000000093e-01	2.248220999999999969e-01	1.924180400000000124e-01	1.325134900000000115e-01	1.420088899999999987e-01	9.866631800000000285e-02	1.090244400000000002e-01	9.701623800000000464e-02	8.933777399999999480e-02	7.478104500000000432e-02	7.642946400000000251e-02	9.412835499999999689e-02	7.394631999999999594e-02	8.669944100000000209e-02	1.070611499999999938e-01	6.373944099999999391e-02	1.092112699999999992e-01	1.208992200000000017e-01
5.615940099999999768e-01	5.769957900000000084e-01	5.863359599999999894e-01	5.783321900000000237e-01	6.054372799999999666e-01	6.191942099999999671e-01	6.061362000000000139e-01	5.828073000000000281e-01	6.218630699999999623e-01	6.525559399999999455e-01	6.393752099999999716e-01	6.486257300000000114e-01	6.910085099999999647e-01	6.921621599999999708e-01	7.088758899999999530e-01	7.880942199999999564e-01	7.893864499999999618e-01	8.616546999999999956e-01	8.888025899999999480e-01	9.303286699999999687e-01	1.019430300000000011e+00	1.049024600000000085e+00	1.165256300000000023e+00	1.205411699999999975e+00	1.203946799999999984e+00	1.301193499999999892e+00	1.381269000000000080e+00	1.439297700000000013e+00	1.448138499999999995e+00	1.455978800000000017e+00	1.374403700000000006e+00	1.410155300000000000e+00	1.315600499999999951e+00	1.388412200000000096e+00	1.382803199999999899e+00	1.391186500000000104e+00	1.414230199999999993e+00	1.428301499999999891e+00	1.551086399999999976e+00	1.478897200000000023e+00	1.590780099999999919e+00	1.456892499999999924e+00	1.584134699999999896e+00	1.533158500000000091e+00	1.425711200000000067e+00	1.435070400000000079e+00	1.430252000000000079e+00	1.316608299999999954e+00	1.261118299999999914e+00	1.157081699999999991e+00	1.122794899999999929e+00	1.138964899999999947e+00	1.120015299999999936e+00	1.099705500000000002e+00	1.070385499999999990e+00	9.857110399999999828e-01	1.007398800000000039e+00	9.296895299999999862e-01	1.001909099999999997e+00	1.005611299999999986e+00	1.071487499999999926e+00	1.105481500000000006e+00	1.131274600000000019e+00	9.825581899999999980e-01	1.068617200000000045e+00	1.078625600000000073e+00	1.060629599999999950e+00	9.820588199999999990e-01	1.036851299999999920e+00	9.374249000000000054e-01	9.422795200000000371e-01	8.261221100000000206e-01	7.443544899999999798e-01	7.615492299999999659e-01	7.127139599999999797e-01	7.016693400000000302e-01	6.955936600000000025e-01	6.290958500000000120e-01	6.414586300000000296e-01	6.865132999999999930e-01	5.689998899999999527e-01	6.072197000000000289e-01	6.356643400000000499e-01	5.649537399999999820e-01	6.324142200000000269e-01	5.608878099999999867e-01	5.889596900000000357e-01	6.102860599999999636e-01	5.967911500000000480e-01	6.001817600000000086e-01	5.574049399999999599e-01	5.914941999999999700e-01	5.316412999999999833e-01	5.375702399999999770e-01	5.315366400000000047e-01	4.279942199999999808e-01	4.381677800000000067e-01	3.908284899999999729e-01	3.159177599999999919e-01	3.073290000000000188e-01	2.426320299999999985e-01	2.256185900000000077e-01	2.129734299999999914e-01	1.740297399999999883e-01	1.324995499999999937e-01	1.269311899999999993e-01	9.435839999999999506e-02	9.718410700000000568e-02	8.653308499999999570e-02	7.686410800000000043e-02	6.651854499999999837e-02	8.234257999999999855e-02	9.480023399999999711e-02	7.011315999999999382e-02	8.908532600000000634e-02	1.154466299999999945e-01	8.566115100000000482e-02	1.313311600000000023e-01	1.421521599999999996e-01
5.459353300000000520e-01	5.609279900000000429e-01	5.566925999999999819e-01	5.468494299999999697e-01	5.772774200000000411e-01	5.765258699999999958e-01	5.770600999999999647e-01	5.571917899999999646e-01	5.833362300000000111e-01	6.120548799999999678e-01	6.221115600000000079e-01	6.122388199999999614e-01	6.327784100000000134e-01	6.731412399999999741e-01	6.827540399999999510e-01	7.277452899999999891e-01	7.679600699999999946e-01	8.439505699999999555e-01	8.563293199999999494e-01	8.651946200000000253e-01	9.399353299999999578e-01	1.038123099999999965e+00	1.131422399999999939e+00	1.156946100000000088e+00	1.231203800000000070e+00	1.266634299999999991e+00	1.375659100000000024e+00	1.410490500000000091e+00	1.439789200000000102e+00	1.470803700000000047e+00	1.374068700000000032e+00	1.424350500000000075e+00	1.331337599999999899e+00	1.379735699999999898e+00	1.392664200000000019e+00	1.446060700000000088e+00	1.413519600000000098e+00	1.463575599999999977e+00	1.605376499999999984e+00	1.497198500000000099e+00	1.589053199999999944e+00	1.435091499999999964e+00	1.612251899999999960e+00	1.566461899999999963e+00	1.482564599999999899e+00	1.468580699999999961e+00	1.461557699999999960e+00	1.366128999999999927e+00	1.268110000000000070e+00	1.171059999999999990e+00	1.123864100000000033e+00	1.153873300000000102e+00	1.148793100000000011e+00	1.070448499999999914e+00	1.059026100000000081e+00	9.788962599999999625e-01	9.969096200000000518e-01	9.187684099999999798e-01	9.852075000000000138e-01	9.846681400000000250e-01	1.035777299999999901e+00	1.075835099999999933e+00	1.102865500000000054e+00	9.658394500000000438e-01	1.007609800000000000e+00	1.052897600000000100e+00	1.047082700000000033e+00	9.473783399999999855e-01	1.002650299999999994e+00	9.387270199999999676e-01	9.229591499999999504e-01	8.555445699999999487e-01	7.757822300000000171e-01	8.201649800000000434e-01	7.565615199999999874e-01	7.601524600000000298e-01	7.391611900000000235e-01	6.515283600000000286e-01	6.663097700000000234e-01	7.201072600000000268e-01	5.884932299999999783e-01	6.406916999999999751e-01	6.733578999999999537e-01	6.195351500000000344e-01	6.527431599999999889e-01	5.581952300000000422e-01	5.885045500000000152e-01	5.971913899999999886e-01	5.647996699999999759e-01	5.747107900000000269e-01	5.439441799999999994e-01	5.667207199999999556e-01	5.089322899999999539e-01	5.150316400000000128e-01	5.019115200000000554e-01	3.871006399999999958e-01	4.017477300000000251e-01	3.810023399999999949e-01	3.024771499999999724e-01	3.037689299999999926e-01	2.191659499999999983e-01	2.159332599999999880e-01	1.972638999999999920e-01	1.593315600000000110e-01	1.287569699999999984e-01	1.218525300000000006e-01	9.947606900000000030e-02	9.859292199999999950e-02	7.820694899999999783e-02	6.668759900000000018e-02	6.006325400000000342e-02	9.238059799999999433e-02	9.655699099999999480e-02	7.005864400000000325e-02	9.703113900000000236e-02	1.259391300000000102e-01	1.280899199999999960e-01	1.576551300000000044e-01	1.743376700000000001e-01
5.319888600000000078e-01	5.345920299999999958e-01	5.247356300000000084e-01	5.220325000000000104e-01	5.536154500000000089e-01	5.319893399999999772e-01	5.468241600000000036e-01	5.258263899999999769e-01	5.399737999999999483e-01	5.799160599999999555e-01	6.080381299999999545e-01	5.870513899999999508e-01	6.013357000000000285e-01	6.348465699999999989e-01	6.311664599999999847e-01	6.858697499999999447e-01	7.365587399999999896e-01	8.210044499999999967e-01	8.306098600000000332e-01	8.232214500000000212e-01	8.665905000000000413e-01	1.011658500000000016e+00	1.067765000000000075e+00	1.101378399999999980e+00	1.253287999999999958e+00	1.242024699999999982e+00	1.341050400000000087e+00	1.398873599999999939e+00	1.403720400000000090e+00	1.465244699999999956e+00	1.371399999999999952e+00	1.463446000000000025e+00	1.328174699999999930e+00	1.367904299999999962e+00	1.412583200000000039e+00	1.507630500000000096e+00	1.412864200000000015e+00	1.504753199999999902e+00	1.601933000000000051e+00	1.489071699999999998e+00	1.599630799999999908e+00	1.436968800000000046e+00	1.610976500000000033e+00	1.556907899999999900e+00	1.508750000000000036e+00	1.487588200000000027e+00	1.491424400000000094e+00	1.389092999999999911e+00	1.248861900000000080e+00	1.165210700000000044e+00	1.143980299999999950e+00	1.149197699999999989e+00	1.150318100000000010e+00	1.013482500000000064e+00	1.044775999999999927e+00	9.649898399999999876e-01	9.976121199999999911e-01	8.726041900000000018e-01	9.261043100000000416e-01	9.332530500000000284e-01	1.000580999999999943e+00	1.043643799999999899e+00	1.035315599999999892e+00	9.426495400000000080e-01	9.586137500000000422e-01	1.017477799999999988e+00	1.027853399999999917e+00	9.089205900000000282e-01	9.572346800000000044e-01	9.323915799999999976e-01	8.993064200000000508e-01	8.851019700000000157e-01	8.067851700000000514e-01	8.839522600000000452e-01	7.905909399999999643e-01	7.814833500000000210e-01	7.887380699999999578e-01	7.072515499999999511e-01	6.979527500000000106e-01	7.376650000000000151e-01	6.280329799999999629e-01	6.624483500000000191e-01	6.950314600000000453e-01	6.582595100000000476e-01	6.638640199999999991e-01	5.531846900000000344e-01	5.793295499999999709e-01	5.882573700000000017e-01	5.413631199999999755e-01	5.494901500000000105e-01	5.349376200000000026e-01	5.575221200000000099e-01	4.827855500000000077e-01	4.994996500000000172e-01	4.781343000000000121e-01	3.622158200000000217e-01	3.637468799999999947e-01	3.627247800000000244e-01	3.095819100000000157e-01	2.897885399999999834e-01	2.098753999999999897e-01	1.998257900000000031e-01	1.727030599999999916e-01	1.484541100000000002e-01	1.108128099999999977e-01	1.134236899999999937e-01	1.077689899999999951e-01	9.645036599999999571e-02	7.806761600000000634e-02	6.771557799999999849e-02	5.716322699999999701e-02	9.835554700000000150e-02	1.014101500000000045e-01	7.247918799999999995e-02	1.056889399999999951e-01	1.417119400000000085e-01	1.763601200000000091e-01	1.783653299999999886e-01	2.105508700000000011e-01
5.132695400000000241e-01	5.136926200000000442e-01	4.818603100000000139e-01	4.887406499999999987e-01	5.216339800000000526e-01	5.030181400000000025e-01	5.183802199999999472e-01	4.957782900000000104e-01	5.048428799999999939e-01	5.560623999999999567e-01	5.732820600000000377e-01	5.641403799999999968e-01	5.731096300000000365e-01	5.934891100000000419e-01	5.788586700000000196e-01	6.412547199999999448e-01	6.899806899999999521e-01	7.687161599999999817e-01	7.812126299999999635e-01	8.073287000000000102e-01	8.197238999999999498e-01	9.678293500000000327e-01	9.939860700000000548e-01	1.037549099999999891e+00	1.222253400000000045e+00	1.224795700000000043e+00	1.286448400000000047e+00	1.390573099999999895e+00	1.372737199999999991e+00	1.447829400000000044e+00	1.382468899999999890e+00	1.454995599999999945e+00	1.326037899999999992e+00	1.333241700000000085e+00	1.418072599999999905e+00	1.513042999999999916e+00	1.453967599999999916e+00	1.522355899999999984e+00	1.594249100000000086e+00	1.490073800000000004e+00	1.576925799999999933e+00	1.506710800000000017e+00	1.595618200000000098e+00	1.522200900000000079e+00	1.514002199999999965e+00	1.506655700000000042e+00	1.461641100000000026e+00	1.390493800000000002e+00	1.242589799999999967e+00	1.164915399999999934e+00	1.158019099999999968e+00	1.120009299999999985e+00	1.129885299999999981e+00	9.812792500000000473e-01	1.027636500000000064e+00	9.168744699999999970e-01	9.878278999999999810e-01	8.361054700000000173e-01	9.071761999999999881e-01	8.900255000000000249e-01	9.638073400000000124e-01	9.959685200000000238e-01	9.744023699999999621e-01	9.186349499999999502e-01	9.063098400000000332e-01	9.559695099999999668e-01	9.823893299999999495e-01	9.264788000000000467e-01	9.170277700000000198e-01	9.150270799999999927e-01	8.923575299999999544e-01	8.796580400000000299e-01	8.230925799999999626e-01	9.194321600000000538e-01	8.189231200000000044e-01	7.895007699999999629e-01	8.078413599999999528e-01	7.558029299999999839e-01	7.320996499999999907e-01	7.400164000000000186e-01	6.738020799999999699e-01	6.640163100000000540e-01	6.975797400000000037e-01	6.935592299999999710e-01	6.570813100000000295e-01	5.642076099999999705e-01	5.764861100000000516e-01	5.772097099999999870e-01	5.443658200000000003e-01	5.240108999999999462e-01	5.311066500000000135e-01	5.260260700000000123e-01	4.569258700000000117e-01	4.793594500000000203e-01	4.741017499999999885e-01	3.508153900000000047e-01	3.273005800000000076e-01	3.414976900000000204e-01	3.030368700000000137e-01	2.664084099999999844e-01	1.999402500000000138e-01	1.823693200000000014e-01	1.456033999999999939e-01	1.374616800000000028e-01	9.560380899999999793e-02	1.049291299999999955e-01	1.102410999999999947e-01	9.187578400000000201e-02	7.019773099999999932e-02	6.581143999999999883e-02	6.871075199999999994e-02	9.920518799999999970e-02	1.046384499999999940e-01	9.215012899999999729e-02	1.217439700000000069e-01	1.645916600000000007e-01	2.137310799999999900e-01	2.088230799999999943e-01	2.489477700000000127e-01
4.910959899999999823e-01	4.956273700000000115e-01	4.425566200000000117e-01	4.466696399999999789e-01	4.777800999999999854e-01	4.837416999999999967e-01	4.791861499999999774e-01	4.664676799999999957e-01	4.933717000000000241e-01	5.140230700000000263e-01	5.295768400000000486e-01	5.333058200000000415e-01	5.361848500000000461e-01	5.439555000000000362e-01	5.510036900000000459e-01	5.944751499999999522e-01	6.514837100000000492e-01	7.247277500000000039e-01	7.173289099999999863e-01	7.642394900000000213e-01	7.928916799999999876e-01	9.116678200000000176e-01	9.260312299999999830e-01	9.944241600000000014e-01	1.159739499999999923e+00	1.198536299999999999e+00	1.223680899999999960e+00	1.338018200000000046e+00	1.338498500000000035e+00	1.396530000000000049e+00	1.379003200000000096e+00	1.404134999999999911e+00	1.319296000000000024e+00	1.284696199999999955e+00	1.408604600000000096e+00	1.461721199999999943e+00	1.475954400000000000e+00	1.525903299999999962e+00	1.584034699999999907e+00	1.493728299999999898e+00	1.529486799999999924e+00	1.530557500000000015e+00	1.590317699999999945e+00	1.496410500000000088e+00	1.518306399999999945e+00	1.501004100000000063e+00	1.431684699999999921e+00	1.369685999999999959e+00	1.249349499999999891e+00	1.158804900000000027e+00	1.162311000000000094e+00	1.072503299999999937e+00	1.091383100000000050e+00	9.860035799999999906e-01	1.000770299999999891e+00	8.585939999999999683e-01	9.375658000000000047e-01	8.130701799999999757e-01	8.917627299999999479e-01	8.525155199999999711e-01	9.284194099999999450e-01	9.340832199999999919e-01	9.089987299999999770e-01	8.776357200000000081e-01	8.488548999999999678e-01	8.865863699999999570e-01	9.374243599999999565e-01	9.164273099999999950e-01	9.123551199999999639e-01	9.051870699999999825e-01	8.933270599999999506e-01	8.720676899999999510e-01	8.455624000000000473e-01	9.373557599999999823e-01	8.349819800000000125e-01	8.115633700000000061e-01	8.291658800000000218e-01	7.920558500000000057e-01	7.443783299999999770e-01	7.480720899999999673e-01	7.257052699999999579e-01	6.722029999999999950e-01	7.074648700000000234e-01	7.242089499999999624e-01	6.498542400000000274e-01	5.737363699999999955e-01	5.935264799999999674e-01	5.772630600000000500e-01	5.574395100000000269e-01	5.063065900000000008e-01	5.162458399999999559e-01	4.809266899999999900e-01	4.356262100000000137e-01	4.583275299999999830e-01	4.744398300000000068e-01	3.382354399999999983e-01	3.150639499999999815e-01	3.014592200000000277e-01	2.788551200000000119e-01	2.594566899999999898e-01	1.837075400000000025e-01	1.726451800000000092e-01	1.227397800000000067e-01	1.293195500000000053e-01	9.405828300000000641e-02	9.633707299999999529e-02	1.055104300000000023e-01	9.040197699999999448e-02	6.483884900000000395e-02	6.258817799999999432e-02	8.296944900000000067e-02	9.906923800000000391e-02	1.162542300000000001e-01	1.203683100000000061e-01	1.459936799999999868e-01	1.973720800000000053e-01	2.499266599999999949e-01	2.493530999999999942e-01	2.836447699999999905e-01
4.646360600000000174e-01	4.754076600000000097e-01	4.021268499999999801e-01	4.220969700000000158e-01	4.396502700000000097e-01	4.564371999999999874e-01	4.299042800000000275e-01	4.379414899999999888e-01	4.857933199999999729e-01	4.575334200000000240e-01	4.792732299999999945e-01	5.054014900000000088e-01	4.926850199999999735e-01	4.703678199999999920e-01	5.381375000000000464e-01	5.407847799999999650e-01	6.103452999999999795e-01	6.809610699999999461e-01	6.624230100000000343e-01	7.084697500000000092e-01	7.511682499999999818e-01	8.361810400000000421e-01	8.796968499999999747e-01	9.609855400000000270e-01	1.092098699999999978e+00	1.147310400000000064e+00	1.155111199999999894e+00	1.269624099999999922e+00	1.295555900000000094e+00	1.329983099999999974e+00	1.353931500000000065e+00	1.370400999999999980e+00	1.286453400000000080e+00	1.266883299999999934e+00	1.388504299999999914e+00	1.375671300000000041e+00	1.450813399999999920e+00	1.498711600000000033e+00	1.532045499999999949e+00	1.471661200000000003e+00	1.486799800000000005e+00	1.475445700000000082e+00	1.546863700000000064e+00	1.477797900000000109e+00	1.483931399999999901e+00	1.442297500000000010e+00	1.414873700000000012e+00	1.350272200000000034e+00	1.238707800000000026e+00	1.125432100000000046e+00	1.160380500000000037e+00	1.025319300000000045e+00	1.058010899999999976e+00	9.965692800000000018e-01	9.713946599999999654e-01	8.266246900000000508e-01	8.708547399999999605e-01	7.990572500000000522e-01	8.472117200000000015e-01	8.318155999999999883e-01	8.717959499999999862e-01	8.566949400000000159e-01	8.313103299999999862e-01	8.288357899999999612e-01	8.159218999999999777e-01	8.265930400000000011e-01	9.083365799999999490e-01	8.722268899999999769e-01	9.131011399999999778e-01	8.907943400000000178e-01	8.730961699999999492e-01	8.706097600000000103e-01	8.866751200000000388e-01	9.471077300000000365e-01	8.553237900000000282e-01	8.355413699999999499e-01	8.503834599999999799e-01	8.106456399999999451e-01	7.469366800000000195e-01	7.763737400000000344e-01	7.698118699999999537e-01	7.101176999999999628e-01	7.269740700000000277e-01	7.312410499999999480e-01	6.427719600000000311e-01	5.883049399999999984e-01	6.146644399999999786e-01	5.734065799999999991e-01	5.516828299999999574e-01	4.968531400000000264e-01	5.000293300000000496e-01	4.471153299999999775e-01	4.067048400000000119e-01	4.408431899999999959e-01	4.459735799999999806e-01	3.273956800000000222e-01	3.106081500000000273e-01	2.578890899999999875e-01	2.623549700000000207e-01	2.500985000000000014e-01	1.701392800000000038e-01	1.632962699999999934e-01	1.145538100000000059e-01	1.226037700000000008e-01	1.007153499999999952e-01	9.542201499999999892e-02	1.037459700000000068e-01	8.646579100000000018e-02	7.670251999999999626e-02	7.100559800000000310e-02	1.009823700000000019e-01	1.061040500000000053e-01	1.289762899999999934e-01	1.477481599999999895e-01	1.627411099999999944e-01	2.261304299999999934e-01	2.900894600000000212e-01	3.053879400000000244e-01	3.383896399999999915e-01
4.492794900000000036e-01	4.502658800000000072e-01	3.733490700000000051e-01	4.149546599999999752e-01	4.133122599999999869e-01	4.280599999999999961e-01	4.018512399999999984e-01	4.124012000000000233e-01	4.659181199999999912e-01	4.051929100000000172e-01	4.384537000000000018e-01	4.725148399999999915e-01	4.377952199999999849e-01	4.091998299999999866e-01	5.305444599999999955e-01	4.855928099999999858e-01	5.605812700000000204e-01	6.262744700000000275e-01	6.101307900000000339e-01	6.549483499999999569e-01	6.915378599999999487e-01	7.683119200000000371e-01	8.387057799999999563e-01	9.090957600000000305e-01	1.014266099999999948e+00	1.071508200000000022e+00	1.084977300000000033e+00	1.210172100000000084e+00	1.229101500000000069e+00	1.250159000000000020e+00	1.284159999999999968e+00	1.318068400000000029e+00	1.232092699999999930e+00	1.243393100000000029e+00	1.360019899999999948e+00	1.301947100000000024e+00	1.407847199999999965e+00	1.422086200000000078e+00	1.433171900000000054e+00	1.451072899999999999e+00	1.450270900000000029e+00	1.412061500000000080e+00	1.488996699999999951e+00	1.448518500000000042e+00	1.440741400000000061e+00	1.358956599999999959e+00	1.396496699999999924e+00	1.331106799999999923e+00	1.205532999999999966e+00	1.091164500000000093e+00	1.138641100000000073e+00	9.850189700000000492e-01	1.010972100000000040e+00	9.635090200000000493e-01	9.319959300000000280e-01	7.975196799999999531e-01	8.216965200000000413e-01	7.818558799999999476e-01	7.858853300000000486e-01	7.867378600000000111e-01	8.026882400000000528e-01	7.746447300000000036e-01	7.651815400000000489e-01	7.872293599999999891e-01	8.116632700000000478e-01	7.803376899999999727e-01	8.839873700000000500e-01	8.398811800000000050e-01	8.886987600000000320e-01	8.760849200000000447e-01	8.526763899999999508e-01	8.394886900000000374e-01	9.000085599999999575e-01	9.514253099999999685e-01	8.766778699999999702e-01	8.554824599999999446e-01	8.545547700000000191e-01	8.042532799999999593e-01	7.518899399999999789e-01	7.987645899999999966e-01	7.864113499999999535e-01	7.618337299999999868e-01	7.488961800000000224e-01	7.066243300000000227e-01	6.531575299999999862e-01	5.975179099999999854e-01	6.131240100000000526e-01	5.746996399999999561e-01	5.433343099999999870e-01	4.923888699999999785e-01	4.733846800000000021e-01	4.297690100000000069e-01	3.839924299999999957e-01	4.177226099999999942e-01	4.187699300000000124e-01	3.210540100000000008e-01	2.936864800000000275e-01	2.214951099999999951e-01	2.612782100000000107e-01	2.303930700000000054e-01	1.652406800000000009e-01	1.502350899999999878e-01	1.162007399999999968e-01	1.254819600000000035e-01	1.003351199999999999e-01	9.205394999999999550e-02	1.070068899999999934e-01	8.444690700000000161e-02	8.881381900000000218e-02	9.364160900000000065e-02	1.176194899999999932e-01	1.314012999999999987e-01	1.415703399999999890e-01	1.637935199999999980e-01	1.864200099999999971e-01	2.633041400000000198e-01	3.216341099999999731e-01	3.591909999999999825e-01	4.033045499999999839e-01
4.327087700000000203e-01	4.115081400000000222e-01	3.514796499999999768e-01	4.114514599999999911e-01	3.969913099999999861e-01	3.889615499999999892e-01	3.828240299999999818e-01	3.908480999999999761e-01	4.247855200000000275e-01	3.664087400000000105e-01	3.966432500000000028e-01	4.292480599999999868e-01	3.843307200000000146e-01	3.751655500000000143e-01	4.997014100000000125e-01	4.263329799999999725e-01	5.045039100000000554e-01	5.690028700000000494e-01	5.432609900000000547e-01	6.087914100000000328e-01	6.353296600000000183e-01	7.164643400000000328e-01	7.739246499999999918e-01	8.520852899999999952e-01	9.604805699999999780e-01	9.877733600000000447e-01	1.014874599999999960e+00	1.165763000000000105e+00	1.149109399999999948e+00	1.161439399999999900e+00	1.180789099999999925e+00	1.234326400000000046e+00	1.166239299999999979e+00	1.189386000000000054e+00	1.301343399999999928e+00	1.269272600000000084e+00	1.333945900000000018e+00	1.333392700000000097e+00	1.345607999999999915e+00	1.408110500000000043e+00	1.428088900000000105e+00	1.367147700000000077e+00	1.429059700000000044e+00	1.395860000000000101e+00	1.412019499999999983e+00	1.298355300000000101e+00	1.364660299999999937e+00	1.298842300000000005e+00	1.174861799999999956e+00	1.066918500000000103e+00	1.106430100000000083e+00	9.580518000000000089e-01	9.579901699999999742e-01	9.069091099999999628e-01	8.992719700000000316e-01	7.672287199999999752e-01	7.667020599999999630e-01	7.600001699999999749e-01	7.051964400000000355e-01	7.355038499999999591e-01	7.421513800000000272e-01	7.087774900000000100e-01	7.154787200000000125e-01	7.362932599999999495e-01	7.622529900000000191e-01	7.251460600000000367e-01	8.449925799999999931e-01	8.332424200000000392e-01	8.600766100000000192e-01	8.554345399999999655e-01	8.459546599999999694e-01	8.125380899999999906e-01	9.036495700000000131e-01	9.170869000000000382e-01	8.691158300000000336e-01	8.596665300000000398e-01	8.407025900000000274e-01	8.078970899999999844e-01	7.652526499999999787e-01	8.251908399999999810e-01	7.773595500000000103e-01	8.030554100000000251e-01	7.863815400000000455e-01	6.760156800000000077e-01	6.731688399999999906e-01	6.015380000000000171e-01	6.337169999999999748e-01	5.817453299999999494e-01	5.455408099999999871e-01	4.919941400000000242e-01	4.591102899999999765e-01	4.136896700000000093e-01	3.675857200000000047e-01	3.882017999999999858e-01	3.878717099999999807e-01	3.160454300000000161e-01	2.656630600000000064e-01	1.979807299999999937e-01	2.552609699999999759e-01	2.059523199999999943e-01	1.743379100000000126e-01	1.444745799999999913e-01	1.238911500000000054e-01	1.316277399999999931e-01	1.017749599999999977e-01	9.327451100000000439e-02	1.056230100000000033e-01	9.403936599999999923e-02	9.432265200000000682e-02	1.112289199999999950e-01	1.183887299999999976e-01	1.527893100000000115e-01	1.624874000000000041e-01	1.977192200000000011e-01	2.277340099999999867e-01	3.010645499999999863e-01	3.488802899999999818e-01	4.133063000000000153e-01	4.582665000000000211e-01
4.033550900000000272e-01	3.601215799999999967e-01	3.311848000000000014e-01	3.832373000000000030e-01	3.908982899999999816e-01	3.422126500000000071e-01	3.537065099999999740e-01	3.672092900000000215e-01	3.822014000000000244e-01	3.314604800000000018e-01	3.495055699999999876e-01	3.819916199999999762e-01	3.449864699999999895e-01	3.402406900000000123e-01	4.379982700000000229e-01	3.895049999999999901e-01	4.536991400000000008e-01	5.086233599999999688e-01	4.838829599999999731e-01	5.711849300000000351e-01	5.845671900000000143e-01	6.607505099999999576e-01	7.097266300000000250e-01	7.973502300000000487e-01	9.192194900000000279e-01	9.129504600000000192e-01	9.471598300000000359e-01	1.116764300000000043e+00	1.073029299999999964e+00	1.082891300000000001e+00	1.095309400000000100e+00	1.136256300000000108e+00	1.093989600000000006e+00	1.134747699999999915e+00	1.224034499999999914e+00	1.236704100000000084e+00	1.271943100000000104e+00	1.255024099999999976e+00	1.285245200000000088e+00	1.366888899999999962e+00	1.395178400000000041e+00	1.340044599999999919e+00	1.336750899999999964e+00	1.334965699999999922e+00	1.368578000000000072e+00	1.245649699999999971e+00	1.313039300000000020e+00	1.244851799999999953e+00	1.158256500000000022e+00	1.035339999999999927e+00	1.082120299999999924e+00	9.349885000000000002e-01	9.152026199999999667e-01	8.472784199999999766e-01	8.535338000000000092e-01	7.279921200000000203e-01	7.458339899999999467e-01	7.169197200000000381e-01	6.352708900000000325e-01	6.852801400000000376e-01	6.793332699999999891e-01	6.688721199999999589e-01	6.707249299999999970e-01	6.706067300000000397e-01	6.945447300000000546e-01	6.709523800000000149e-01	7.739382399999999995e-01	8.105837099999999573e-01	8.266160500000000466e-01	8.104292800000000296e-01	8.115678400000000403e-01	8.018677199999999505e-01	8.715072900000000455e-01	8.638496399999999742e-01	8.646324300000000074e-01	8.586239199999999849e-01	8.221467700000000267e-01	8.229649100000000495e-01	7.646042699999999748e-01	8.468121899999999647e-01	7.594640299999999566e-01	8.085100100000000012e-01	8.227738700000000183e-01	6.770401600000000020e-01	6.639002600000000198e-01	6.041384300000000040e-01	6.531416199999999783e-01	5.805410699999999924e-01	5.463534599999999575e-01	5.050011899999999887e-01	4.635789100000000107e-01	4.045167599999999752e-01	3.515976699999999733e-01	3.791390099999999985e-01	3.622359900000000077e-01	3.077049299999999876e-01	2.353883700000000134e-01	1.907871399999999940e-01	2.398411000000000015e-01	1.848589800000000061e-01	1.783563300000000074e-01	1.424017399999999989e-01	1.385169800000000118e-01	1.266228100000000023e-01	1.011628299999999953e-01	1.021352600000000055e-01	1.141382100000000038e-01	1.074053700000000000e-01	1.058492099999999991e-01	1.313237999999999905e-01	1.215807400000000066e-01	1.739840800000000132e-01	1.846692699999999965e-01	2.280202799999999919e-01	2.735413600000000112e-01	3.482672600000000229e-01	3.885296599999999989e-01	4.578672300000000139e-01	5.039204999999999934e-01
3.884482699999999844e-01	3.148955999999999977e-01	3.054152399999999767e-01	3.488145500000000010e-01	3.933104000000000045e-01	3.102856600000000187e-01	3.255414999999999837e-01	3.312250700000000103e-01	3.402038199999999901e-01	2.999884800000000018e-01	2.993436500000000167e-01	3.402662300000000029e-01	3.192859599999999798e-01	3.019877999999999729e-01	3.815558299999999847e-01	3.595850500000000172e-01	4.208703599999999989e-01	4.542633899999999891e-01	4.308268100000000045e-01	5.265385500000000496e-01	5.344725799999999749e-01	6.059411799999999682e-01	6.570851199999999670e-01	7.386658799999999969e-01	8.352115199999999851e-01	8.423370100000000527e-01	8.965023800000000431e-01	1.055158100000000099e+00	1.007184499999999927e+00	1.007460699999999987e+00	1.015346300000000035e+00	1.058193900000000021e+00	1.021499799999999958e+00	1.072925099999999965e+00	1.150454300000000041e+00	1.190995699999999990e+00	1.204816000000000109e+00	1.192364900000000061e+00	1.219962100000000049e+00	1.307259299999999902e+00	1.317452000000000067e+00	1.316330800000000023e+00	1.233441900000000091e+00	1.279657100000000103e+00	1.331572299999999931e+00	1.197275899999999949e+00	1.237018799999999974e+00	1.194220800000000082e+00	1.125169199999999980e+00	9.751536800000000227e-01	1.054108599999999951e+00	9.183970099999999581e-01	8.709037299999999870e-01	8.048115399999999919e-01	7.896088999999999469e-01	6.957319400000000487e-01	7.332785699999999629e-01	6.896592999999999751e-01	5.794960900000000192e-01	6.268218800000000535e-01	6.231259700000000290e-01	6.239483399999999902e-01	6.198481300000000527e-01	6.028824999999999878e-01	6.175384499999999610e-01	6.131339700000000281e-01	7.082600599999999691e-01	7.401200500000000293e-01	7.840415800000000157e-01	7.685088500000000211e-01	7.578979700000000319e-01	7.796507499999999480e-01	8.156933800000000234e-01	8.212960999999999734e-01	8.428854900000000150e-01	8.555301400000000500e-01	7.816509600000000058e-01	8.164204400000000250e-01	7.656377599999999450e-01	8.587349699999999864e-01	7.489575099999999930e-01	7.951692900000000286e-01	8.290927399999999947e-01	7.037885200000000285e-01	6.527994900000000378e-01	6.029445500000000235e-01	6.576784799999999542e-01	5.746982099999999871e-01	5.387141100000000238e-01	5.087885899999999850e-01	4.729042099999999915e-01	4.104136500000000187e-01	3.391560299999999972e-01	3.779015800000000147e-01	3.454848799999999942e-01	3.083023100000000238e-01	2.143510299999999980e-01	1.933789999999999953e-01	2.203579699999999864e-01	1.778481799999999946e-01	1.710745100000000130e-01	1.365361200000000108e-01	1.410293900000000045e-01	1.248948599999999964e-01	9.813527800000000634e-02	1.191982500000000056e-01	1.251426300000000047e-01	1.106288200000000027e-01	1.289067000000000129e-01	1.559253300000000009e-01	1.385898000000000130e-01	1.941937699999999878e-01	2.016956699999999936e-01	2.484241899999999892e-01	3.098852899999999799e-01	3.960120400000000096e-01	4.430072600000000138e-01	4.955114099999999855e-01	5.664839099999999794e-01
3.858682800000000079e-01	2.912927000000000155e-01	2.918733099999999969e-01	3.142310700000000012e-01	3.756483199999999800e-01	2.810560200000000175e-01	2.983970300000000075e-01	2.920555499999999971e-01	2.942928699999999842e-01	2.729982100000000189e-01	2.628926899999999844e-01	3.068762700000000065e-01	2.981883599999999857e-01	2.640891100000000158e-01	3.325104400000000182e-01	3.205148899999999967e-01	3.827910999999999953e-01	4.076873699999999934e-01	3.845389799999999747e-01	4.814847999999999906e-01	4.844261999999999735e-01	5.408662600000000431e-01	6.054847799999999447e-01	6.599657500000000176e-01	7.302136999999999656e-01	7.528362299999999951e-01	8.426983399999999902e-01	9.546739499999999934e-01	9.405582500000000401e-01	9.268836400000000086e-01	9.585250600000000398e-01	1.019342399999999982e+00	9.748272300000000445e-01	9.998250600000000432e-01	1.079845900000000025e+00	1.107224800000000009e+00	1.128972400000000098e+00	1.128826600000000013e+00	1.165701899999999958e+00	1.234053899999999926e+00	1.229430999999999941e+00	1.282473699999999939e+00	1.169807199999999936e+00	1.203430900000000081e+00	1.267194699999999896e+00	1.140503800000000068e+00	1.157521599999999928e+00	1.153595900000000007e+00	1.060696499999999931e+00	9.374708499999999667e-01	1.028827900000000017e+00	8.963696399999999676e-01	8.411473600000000106e-01	7.841016100000000044e-01	7.228882899999999889e-01	6.661283399999999855e-01	6.933734400000000075e-01	6.415562599999999893e-01	5.474090600000000029e-01	5.725354000000000276e-01	5.912342699999999507e-01	5.640179499999999901e-01	5.769065599999999572e-01	5.522790600000000438e-01	5.341817700000000002e-01	5.525569900000000256e-01	6.484023300000000267e-01	6.769409199999999460e-01	7.201110699999999643e-01	7.264208199999999671e-01	7.031127200000000244e-01	7.609390600000000004e-01	7.735679699999999936e-01	8.108890100000000212e-01	7.999141800000000302e-01	8.582221300000000275e-01	7.390902599999999989e-01	7.908616699999999611e-01	7.756401899999999516e-01	8.439896099999999457e-01	7.389920399999999612e-01	7.821026399999999601e-01	8.059721600000000485e-01	7.084257600000000155e-01	6.531752299999999956e-01	6.032456800000000063e-01	6.564105199999999973e-01	5.609197599999999895e-01	5.284528699999999635e-01	5.059968200000000138e-01	4.920436699999999886e-01	4.223571099999999801e-01	3.458145599999999931e-01	3.849854200000000226e-01	3.293382799999999833e-01	3.026600799999999980e-01	2.064860599999999990e-01	1.925401499999999932e-01	1.952518199999999926e-01	1.810049900000000045e-01	1.647908700000000060e-01	1.276650599999999969e-01	1.358735299999999924e-01	1.356605399999999961e-01	1.052053800000000011e-01	1.428187300000000048e-01	1.394044299999999958e-01	1.212103499999999945e-01	1.536397800000000036e-01	1.802091399999999899e-01	1.532087500000000047e-01	2.213017800000000035e-01	2.322598700000000072e-01	2.631169899999999950e-01	3.398367800000000050e-01	4.346913399999999816e-01	5.072435100000000086e-01	5.475035299999999605e-01	6.636065199999999775e-01
3.706943999999999795e-01	2.915690799999999805e-01	2.826903499999999791e-01	3.009189700000000078e-01	3.439924699999999946e-01	2.578349699999999967e-01	2.669588900000000042e-01	2.534556099999999979e-01	2.632259100000000074e-01	2.438775199999999865e-01	2.350446900000000006e-01	2.702145000000000241e-01	2.734744299999999906e-01	2.429973599999999956e-01	2.841275600000000012e-01	2.847699799999999781e-01	3.215954300000000154e-01	3.632965100000000169e-01	3.553582699999999761e-01	4.277388799999999880e-01	4.307762700000000167e-01	4.774652699999999972e-01	5.432763099999999845e-01	5.812805899999999859e-01	6.471027700000000493e-01	6.537590599999999474e-01	7.736610200000000326e-01	8.379843799999999732e-01	8.542768400000000373e-01	8.606920200000000021e-01	8.986712100000000536e-01	9.716806999999999528e-01	9.348713800000000296e-01	9.355105799999999805e-01	9.977716199999999702e-01	1.023403000000000063e+00	1.063185000000000047e+00	1.067081200000000063e+00	1.122800800000000043e+00	1.173134899999999980e+00	1.168739299999999925e+00	1.241257499999999903e+00	1.122139699999999962e+00	1.132777900000000004e+00	1.186302900000000049e+00	1.088606399999999974e+00	1.096346100000000101e+00	1.102260100000000076e+00	9.910924399999999634e-01	9.325951900000000183e-01	1.011660800000000027e+00	8.681237699999999613e-01	8.093554400000000371e-01	7.689650099999999489e-01	6.635810100000000267e-01	6.304779600000000039e-01	6.413375100000000550e-01	5.952162699999999917e-01	5.281999099999999947e-01	5.148203399999999874e-01	5.637495500000000437e-01	5.044690400000000352e-01	5.165773599999999854e-01	5.071526200000000539e-01	4.631033800000000089e-01	5.042632200000000120e-01	5.940238799999999486e-01	6.165374500000000424e-01	6.291313200000000494e-01	6.748120199999999569e-01	6.575811499999999477e-01	7.359812300000000418e-01	7.449000500000000358e-01	8.033715500000000453e-01	7.487975399999999837e-01	8.430373100000000397e-01	7.353459599999999652e-01	7.783016000000000378e-01	7.549613099999999966e-01	8.096934599999999760e-01	7.121651199999999848e-01	7.699286899999999711e-01	7.716409600000000424e-01	6.934827599999999759e-01	6.621671300000000482e-01	5.886869999999999603e-01	6.423245699999999836e-01	5.663002700000000500e-01	5.127719600000000266e-01	5.099100500000000036e-01	4.953917299999999746e-01	4.340611400000000120e-01	3.629573899999999909e-01	3.781815800000000172e-01	3.077835099999999824e-01	2.848859999999999726e-01	2.137117500000000059e-01	1.982668800000000064e-01	1.786576800000000131e-01	1.943045899999999993e-01	1.639091799999999877e-01	1.178568599999999938e-01	1.359852099999999953e-01	1.480820499999999929e-01	1.160631300000000005e-01	1.600180099999999883e-01	1.530822099999999963e-01	1.572410200000000091e-01	1.844490799999999875e-01	2.111310100000000078e-01	1.739960000000000118e-01	2.529613399999999790e-01	2.753009799999999729e-01	2.840427500000000105e-01	3.726869199999999771e-01	4.798833699999999758e-01	5.881376299999999668e-01	5.925421100000000107e-01	7.509739399999999510e-01
3.580576200000000209e-01	2.933740000000000236e-01	2.746467899999999740e-01	2.929705699999999857e-01	3.061885200000000196e-01	2.486184200000000066e-01	2.437218300000000004e-01	2.342602199999999912e-01	2.382603299999999924e-01	2.158380000000000021e-01	2.182126500000000080e-01	2.303809199999999890e-01	2.521309600000000151e-01	2.289610499999999993e-01	2.393361800000000095e-01	2.505680599999999814e-01	2.732952799999999738e-01	3.191820699999999844e-01	3.235310599999999814e-01	3.754151199999999911e-01	3.939606199999999836e-01	4.305301599999999951e-01	4.708110699999999982e-01	5.095934300000000139e-01	5.721429599999999782e-01	5.625885099999999861e-01	6.953765200000000535e-01	7.321489500000000206e-01	7.812547100000000189e-01	7.915487900000000021e-01	8.204101900000000391e-01	9.019898200000000532e-01	8.879215700000000489e-01	8.761307600000000084e-01	9.087828399999999807e-01	9.496684699999999868e-01	1.006592399999999943e+00	1.010371099999999966e+00	1.087666900000000103e+00	1.107561699999999982e+00	1.107851399999999931e+00	1.174221799999999982e+00	1.072083099999999956e+00	1.069354799999999939e+00	1.116821899999999923e+00	1.058369499999999963e+00	1.054375400000000074e+00	1.044086000000000070e+00	9.421667500000000528e-01	9.182352999999999765e-01	9.807171799999999662e-01	8.341137199999999474e-01	7.907759500000000052e-01	7.538680399999999615e-01	6.109377700000000466e-01	6.029427600000000220e-01	5.883986900000000020e-01	5.569020500000000373e-01	4.999533299999999736e-01	4.708003700000000236e-01	5.047310000000000407e-01	4.557089799999999857e-01	4.514173599999999897e-01	4.681927000000000172e-01	4.219497099999999778e-01	4.624919599999999797e-01	5.322824099999999836e-01	5.603333099999999733e-01	5.492970299999999639e-01	6.230842500000000062e-01	6.322076899999999888e-01	6.890932300000000010e-01	6.986955400000000038e-01	7.730992399999999654e-01	7.127335099999999590e-01	7.940753699999999471e-01	7.509254199999999546e-01	7.583486999999999867e-01	7.092346000000000483e-01	7.801908300000000018e-01	6.976928100000000521e-01	7.672482699999999545e-01	7.373430699999999893e-01	6.678519800000000117e-01	6.753585899999999809e-01	5.739109500000000308e-01	6.192376600000000231e-01	5.706833000000000045e-01	5.045272699999999721e-01	5.203223799999999732e-01	4.782585500000000045e-01	4.177362600000000259e-01	3.728189800000000220e-01	3.754822299999999724e-01	2.928705500000000073e-01	2.619192300000000029e-01	2.305345799999999890e-01	2.124788599999999916e-01	1.870021099999999992e-01	2.092817299999999991e-01	1.820133499999999904e-01	1.238864499999999952e-01	1.462614200000000031e-01	1.658203799999999895e-01	1.357370900000000047e-01	1.684606200000000054e-01	1.651139000000000079e-01	1.865208700000000053e-01	2.233087300000000108e-01	2.363605400000000079e-01	2.065721199999999980e-01	2.665667800000000032e-01	3.180687400000000165e-01	3.226961199999999752e-01	3.965601899999999791e-01	5.262904200000000365e-01	6.420224300000000328e-01	6.327769800000000444e-01	8.003836899999999810e-01
3.454648300000000005e-01	2.845770400000000033e-01	2.794138800000000034e-01	2.889543199999999867e-01	2.824819100000000027e-01	2.329612500000000086e-01	2.281835999999999864e-01	2.257807099999999956e-01	2.152065499999999965e-01	1.854034699999999869e-01	2.007590499999999945e-01	1.974331599999999964e-01	2.313795999999999908e-01	2.107145199999999885e-01	2.039112999999999898e-01	2.214820500000000136e-01	2.439884099999999889e-01	2.785335800000000028e-01	2.889411700000000249e-01	3.153352400000000166e-01	3.631713699999999934e-01	3.831044699999999747e-01	4.142076399999999881e-01	4.380042299999999944e-01	4.864946299999999835e-01	4.850854600000000239e-01	6.020693200000000189e-01	6.272494199999999465e-01	7.169986999999999888e-01	7.117536100000000365e-01	7.385511999999999633e-01	8.031446300000000260e-01	8.330814800000000409e-01	8.325660799999999861e-01	8.617876199999999765e-01	8.886459500000000178e-01	9.534723200000000398e-01	9.630085800000000029e-01	1.047546499999999936e+00	1.042982899999999935e+00	1.056278300000000003e+00	1.085510600000000103e+00	1.017383200000000043e+00	1.023795000000000011e+00	1.075625999999999971e+00	1.047150400000000037e+00	1.013114000000000070e+00	9.781480999999999648e-01	9.243342900000000029e-01	8.875276399999999510e-01	9.400154400000000354e-01	7.764562400000000197e-01	7.636732499999999702e-01	7.435172199999999787e-01	5.586414899999999628e-01	5.739234100000000227e-01	5.437807999999999531e-01	5.109228500000000395e-01	4.571020299999999925e-01	4.361653600000000019e-01	4.338740099999999766e-01	4.141373300000000257e-01	4.036212299999999975e-01	4.193853100000000111e-01	3.880403299999999889e-01	4.218335699999999910e-01	4.697541000000000078e-01	5.015351200000000009e-01	4.975292399999999837e-01	5.565407300000000390e-01	6.079943799999999454e-01	6.300835599999999870e-01	6.355328000000000088e-01	7.315101600000000204e-01	6.951883399999999602e-01	7.255570900000000156e-01	7.389280200000000187e-01	7.280868900000000421e-01	6.785233000000000514e-01	7.541866900000000484e-01	6.967992800000000209e-01	7.538780600000000165e-01	7.039310899999999815e-01	6.469709300000000551e-01	6.768406000000000144e-01	5.843883800000000406e-01	6.001535700000000251e-01	5.546759999999999469e-01	5.081518900000000505e-01	5.155785699999999583e-01	4.572981300000000249e-01	3.981847800000000159e-01	3.734485499999999902e-01	3.797409800000000057e-01	3.093590099999999898e-01	2.516922100000000273e-01	2.474836699999999889e-01	2.167083599999999888e-01	2.101353099999999918e-01	2.158389800000000136e-01	1.958939000000000097e-01	1.456238199999999872e-01	1.660116799999999948e-01	1.919135899999999950e-01	1.679668699999999903e-01	1.737989199999999956e-01	1.986229399999999978e-01	2.078589299999999973e-01	2.548192400000000024e-01	2.533330300000000146e-01	2.507250899999999838e-01	2.956168399999999918e-01	3.532158400000000031e-01	3.734899799999999992e-01	4.164370600000000255e-01	5.586266500000000024e-01	6.862556300000000054e-01	6.750634300000000199e-01	8.020140500000000339e-01
3.457289599999999741e-01	2.728305799999999892e-01	2.825389500000000109e-01	2.964445099999999944e-01	2.874092200000000208e-01	2.241211700000000084e-01	2.266005000000000102e-01	2.172780199999999884e-01	1.972252100000000119e-01	1.723416299999999957e-01	1.784877300000000111e-01	1.763030299999999995e-01	2.060935799999999984e-01	1.933616300000000066e-01	1.843045199999999995e-01	1.932870899999999947e-01	2.112668199999999941e-01	2.310123699999999947e-01	2.535748800000000025e-01	2.555319999999999814e-01	3.238236299999999734e-01	3.351792100000000052e-01	3.527842199999999817e-01	3.811106100000000163e-01	4.110250799999999871e-01	4.144585100000000022e-01	5.140986400000000511e-01	5.452433199999999758e-01	6.365861900000000517e-01	6.369464999999999710e-01	6.684696100000000474e-01	7.081403099999999950e-01	7.565652699999999564e-01	7.899565699999999691e-01	8.248907899999999849e-01	8.356527700000000447e-01	8.952937100000000203e-01	8.987042299999999928e-01	1.014474499999999946e+00	9.711511099999999841e-01	1.013961700000000077e+00	9.976744100000000115e-01	9.760977600000000365e-01	9.753355999999999693e-01	1.020435200000000098e+00	1.015554000000000068e+00	9.467652399999999524e-01	9.332280200000000470e-01	9.044393299999999858e-01	8.438599100000000464e-01	9.016186000000000478e-01	7.390530100000000102e-01	7.051517999999999953e-01	7.185130100000000075e-01	5.276095899999999617e-01	5.326343199999999944e-01	5.003477899999999590e-01	4.711208000000000062e-01	4.173357500000000053e-01	3.852752099999999791e-01	3.868354299999999801e-01	3.766308400000000223e-01	3.556395199999999868e-01	3.681612000000000218e-01	3.392353399999999963e-01	3.851058199999999876e-01	4.101176599999999950e-01	4.399271900000000235e-01	4.650803800000000154e-01	5.027923600000000492e-01	5.557161000000000461e-01	5.754539400000000526e-01	5.873359999999999692e-01	7.092496200000000250e-01	6.709306200000000331e-01	6.692428000000000266e-01	7.093697199999999814e-01	7.023974699999999682e-01	6.668339399999999584e-01	7.069203899999999541e-01	6.698715699999999718e-01	7.121597499999999803e-01	6.628496099999999780e-01	6.225775500000000351e-01	6.580957800000000191e-01	5.962454700000000551e-01	5.843171499999999519e-01	5.247685899999999792e-01	5.111670499999999562e-01	5.073107500000000325e-01	4.411701000000000095e-01	3.896668300000000196e-01	3.614112700000000067e-01	3.760729400000000222e-01	3.304406100000000235e-01	2.584464300000000048e-01	2.622690500000000036e-01	2.239632799999999868e-01	2.310594300000000101e-01	2.172279699999999925e-01	2.081544300000000014e-01	1.794396600000000008e-01	1.837171800000000077e-01	2.229350499999999957e-01	2.112872000000000083e-01	1.905279900000000082e-01	2.475169999999999870e-01	2.291725699999999921e-01	2.833029899999999768e-01	2.859569499999999875e-01	3.006096200000000218e-01	3.514236800000000160e-01	3.983171899999999876e-01	3.952382199999999735e-01	4.382255999999999929e-01	5.929423600000000016e-01	7.069968599999999492e-01	7.096830600000000322e-01	8.163046200000000363e-01
3.462446299999999977e-01	2.685342399999999796e-01	2.847895599999999972e-01	3.104784199999999772e-01	2.896419800000000211e-01	2.277084299999999895e-01	2.362273799999999868e-01	2.116783100000000084e-01	1.872859199999999946e-01	1.813632400000000089e-01	1.870471499999999954e-01	1.651793900000000093e-01	1.775078200000000106e-01	1.788506800000000119e-01	1.740289499999999878e-01	1.699585200000000018e-01	1.797125499999999987e-01	1.951826799999999973e-01	2.130337099999999873e-01	2.174256300000000086e-01	2.693818199999999941e-01	2.838178000000000090e-01	3.044178799999999740e-01	3.393834499999999754e-01	3.490503400000000145e-01	3.631301200000000007e-01	4.424668299999999777e-01	4.948289699999999791e-01	5.418999799999999478e-01	5.628685399999999728e-01	6.190478799999999948e-01	6.170246000000000342e-01	6.931909299999999829e-01	7.461533000000000193e-01	7.614901699999999662e-01	7.870251499999999512e-01	8.324284600000000367e-01	8.139116800000000262e-01	9.671833499999999972e-01	8.972970799999999691e-01	9.675521900000000342e-01	9.326156399999999680e-01	9.201704899999999521e-01	9.324955900000000408e-01	9.434038399999999935e-01	9.528231000000000339e-01	8.876130599999999538e-01	8.810063599999999884e-01	9.010458599999999763e-01	8.149942799999999599e-01	8.547986699999999827e-01	7.341488000000000458e-01	6.548919699999999899e-01	6.608925500000000230e-01	5.240659100000000237e-01	4.886121500000000228e-01	4.693763300000000083e-01	4.336503099999999833e-01	3.904116699999999884e-01	3.500360299999999980e-01	3.575601600000000158e-01	3.319980799999999732e-01	3.092044600000000143e-01	3.400431300000000268e-01	3.008643400000000079e-01	3.516064899999999938e-01	3.610599299999999734e-01	3.987460999999999922e-01	4.350829399999999736e-01	4.550470699999999979e-01	4.869191900000000017e-01	5.233142400000000416e-01	5.421307699999999841e-01	6.963780499999999707e-01	6.272177100000000394e-01	6.304167499999999702e-01	6.690784699999999807e-01	6.786917399999999878e-01	6.540683499999999650e-01	6.473448299999999822e-01	6.295017000000000529e-01	6.555448200000000281e-01	6.188834300000000121e-01	6.114925100000000446e-01	6.263743000000000505e-01	5.898728399999999539e-01	5.614417200000000330e-01	5.143296099999999926e-01	5.115511400000000153e-01	4.925508800000000242e-01	4.330648500000000012e-01	3.820186600000000099e-01	3.355924200000000024e-01	3.615560800000000019e-01	3.405493199999999887e-01	2.837480000000000002e-01	2.620494700000000066e-01	2.444531799999999921e-01	2.384132399999999985e-01	2.310604900000000073e-01	2.292159500000000016e-01	2.324201800000000040e-01	2.206463800000000031e-01	2.541149600000000008e-01	2.616989000000000121e-01	2.197887199999999930e-01	2.895738800000000057e-01	2.489116500000000121e-01	3.193555200000000038e-01	3.244526099999999746e-01	3.457597800000000166e-01	4.013533599999999923e-01	4.339163899999999852e-01	4.013446299999999800e-01	4.824482199999999832e-01	6.345068799999999953e-01	7.181059699999999824e-01	7.663711899999999799e-01	8.640463900000000530e-01
3.329306799999999789e-01	2.779123499999999747e-01	2.958281300000000225e-01	3.166060099999999933e-01	2.766599699999999773e-01	2.382342699999999980e-01	2.387826899999999919e-01	2.144428200000000062e-01	1.964818999999999871e-01	1.926724300000000056e-01	1.932493999999999879e-01	1.606030599999999919e-01	1.605270400000000097e-01	1.757953200000000049e-01	1.584017600000000026e-01	1.536818699999999982e-01	1.484898500000000066e-01	1.705874699999999911e-01	1.772642399999999896e-01	1.801828000000000041e-01	2.134110300000000016e-01	2.372151899999999924e-01	2.672027900000000233e-01	2.891920199999999941e-01	3.027631299999999914e-01	3.186242599999999925e-01	3.908184499999999839e-01	4.428434399999999771e-01	4.632314699999999785e-01	4.921786200000000111e-01	5.790398700000000121e-01	5.297743700000000500e-01	6.469774200000000253e-01	6.857070299999999952e-01	6.925273499999999860e-01	7.369754899999999553e-01	7.742116999999999472e-01	7.523714900000000316e-01	8.995357800000000070e-01	8.485781000000000018e-01	9.080533400000000421e-01	8.767380099999999565e-01	8.620306800000000491e-01	8.962622900000000170e-01	8.616425399999999568e-01	9.076399200000000445e-01	8.555756799999999496e-01	8.398999000000000326e-01	8.822317699999999707e-01	7.980052199999999596e-01	8.195774000000000115e-01	7.417665700000000140e-01	6.244059800000000271e-01	6.148763900000000504e-01	5.258163200000000037e-01	4.575641999999999765e-01	4.396202000000000165e-01	4.020573499999999800e-01	3.705244400000000105e-01	3.346424700000000252e-01	3.291717800000000249e-01	2.811258400000000157e-01	2.695860900000000004e-01	3.150438999999999878e-01	2.708638899999999960e-01	3.069212700000000238e-01	3.216828400000000254e-01	3.660571899999999768e-01	3.850604000000000249e-01	3.955326399999999909e-01	4.399171499999999790e-01	4.762326800000000193e-01	4.878296300000000141e-01	6.555388599999999455e-01	5.623405599999999893e-01	5.870915100000000386e-01	6.196384400000000126e-01	6.498693199999999726e-01	6.131141799999999531e-01	5.824255900000000485e-01	5.805997299999999806e-01	5.900379999999999514e-01	5.902596700000000141e-01	6.077068399999999704e-01	5.668691999999999620e-01	5.498418800000000051e-01	5.287165600000000021e-01	5.201742599999999994e-01	4.966981400000000102e-01	4.596042000000000183e-01	4.315365600000000135e-01	3.719786400000000270e-01	3.277364999999999862e-01	3.621603500000000198e-01	3.348360100000000172e-01	3.042972099999999847e-01	2.589279999999999915e-01	2.474262100000000075e-01	2.514785500000000229e-01	2.617202100000000087e-01	2.601420300000000241e-01	2.814145100000000066e-01	2.771741400000000133e-01	2.910338599999999776e-01	3.166957499999999981e-01	2.675194100000000130e-01	3.335994199999999799e-01	2.798953699999999767e-01	3.676482999999999834e-01	3.639861300000000188e-01	3.891341099999999775e-01	4.430002900000000188e-01	4.673743200000000098e-01	4.392099099999999812e-01	5.535555500000000073e-01	6.638988300000000509e-01	7.520462900000000062e-01	8.252070000000000238e-01	8.903774599999999539e-01
3.148943200000000053e-01	2.904592500000000022e-01	3.126806599999999992e-01	3.180305099999999885e-01	2.619206900000000116e-01	2.465816000000000119e-01	2.335180500000000048e-01	2.240202099999999974e-01	2.162562500000000110e-01	1.934428800000000115e-01	1.874735200000000046e-01	1.683244000000000129e-01	1.556185200000000102e-01	1.703867500000000035e-01	1.540409299999999926e-01	1.393898699999999991e-01	1.295532600000000034e-01	1.487457199999999979e-01	1.522549199999999880e-01	1.656563899999999867e-01	1.683057500000000040e-01	2.033584400000000014e-01	2.389530099999999935e-01	2.405106899999999992e-01	2.549152100000000032e-01	2.821376299999999726e-01	3.480046399999999762e-01	3.912675999999999932e-01	3.946321300000000254e-01	4.271633000000000235e-01	5.287036299999999800e-01	4.593504099999999868e-01	6.030010599999999776e-01	6.195116600000000195e-01	6.526343199999999900e-01	6.940152600000000227e-01	7.145708800000000194e-01	6.989226899999999576e-01	8.180239799999999839e-01	8.098381799999999631e-01	8.544899799999999823e-01	8.161823200000000167e-01	8.230825699999999578e-01	8.805534799999999995e-01	8.018998499999999696e-01	8.810489799999999816e-01	8.161361799999999889e-01	8.102235800000000543e-01	8.491035700000000297e-01	7.589084499999999567e-01	7.811400299999999852e-01	7.304085500000000453e-01	5.971443699999999799e-01	5.791535399999999667e-01	5.030881200000000275e-01	4.596699200000000096e-01	4.165172300000000161e-01	3.796471100000000098e-01	3.525162900000000099e-01	3.232687699999999831e-01	2.916564300000000221e-01	2.512198400000000276e-01	2.431212100000000043e-01	2.809798399999999807e-01	2.384965300000000121e-01	2.694595799999999763e-01	2.901665299999999781e-01	3.333470800000000178e-01	3.341716499999999868e-01	3.394880599999999804e-01	3.937275399999999870e-01	4.289394000000000262e-01	4.405381700000000067e-01	5.951067799999999464e-01	5.051869799999999522e-01	5.376917100000000449e-01	5.606790200000000279e-01	6.157757600000000053e-01	5.571717600000000159e-01	5.343264899999999873e-01	5.470924400000000132e-01	5.396179599999999521e-01	5.462915900000000491e-01	5.873492399999999947e-01	5.103425999999999796e-01	4.900390800000000158e-01	4.872775699999999932e-01	5.174677399999999539e-01	4.762729700000000177e-01	4.219132400000000227e-01	4.170964099999999730e-01	3.674314300000000033e-01	3.411496900000000054e-01	3.688360500000000264e-01	3.183118400000000126e-01	3.121894599999999742e-01	2.574507300000000165e-01	2.459337600000000013e-01	2.657691200000000253e-01	2.898253499999999816e-01	2.932569700000000057e-01	3.154407699999999815e-01	3.182401100000000205e-01	3.349797400000000258e-01	3.554739100000000041e-01	3.126882599999999957e-01	3.677658400000000105e-01	3.268347400000000125e-01	4.071068199999999804e-01	4.023456599999999939e-01	4.412598600000000038e-01	4.768558099999999911e-01	5.358699000000000101e-01	5.088759699999999553e-01	6.253747899999999582e-01	6.864042299999999486e-01	7.910701599999999667e-01	8.707199100000000414e-01	8.955733799999999745e-01
3.251257499999999911e-01	3.053170700000000237e-01	3.254532800000000115e-01	3.201501400000000275e-01	2.639336600000000144e-01	2.695932400000000118e-01	2.402512599999999943e-01	2.561555200000000254e-01	2.426749300000000109e-01	1.986685400000000046e-01	1.785841099999999904e-01	1.983635099999999929e-01	1.605096000000000023e-01	1.678146899999999886e-01	1.579081400000000024e-01	1.319417499999999965e-01	1.213434899999999983e-01	1.369738299999999909e-01	1.361247600000000113e-01	1.623828900000000020e-01	1.316719799999999940e-01	1.809877199999999908e-01	2.073930499999999955e-01	2.001660500000000120e-01	2.120180700000000029e-01	2.605166700000000057e-01	3.035807300000000208e-01	3.376930399999999999e-01	3.407270299999999863e-01	3.703507200000000221e-01	4.749400599999999972e-01	3.984001600000000032e-01	5.475567000000000073e-01	5.696244200000000202e-01	6.240748200000000301e-01	6.388926499999999509e-01	6.601710299999999920e-01	6.583005199999999446e-01	7.333172599999999708e-01	7.605348800000000242e-01	8.125501299999999816e-01	7.625669800000000054e-01	7.922099200000000119e-01	8.507663600000000548e-01	7.800867000000000218e-01	8.387495900000000448e-01	7.650254399999999455e-01	7.795025700000000057e-01	8.016800899999999563e-01	6.874718699999999849e-01	7.246445400000000037e-01	6.948043099999999805e-01	5.593339200000000400e-01	5.534267400000000281e-01	4.758391100000000096e-01	4.666010400000000224e-01	4.100568600000000230e-01	3.703019599999999856e-01	3.323151799999999878e-01	3.076237399999999789e-01	2.577840699999999763e-01	2.360281800000000041e-01	2.235453000000000023e-01	2.441807199999999900e-01	2.071654599999999957e-01	2.510054999999999925e-01	2.532809100000000258e-01	2.998405399999999887e-01	2.929098900000000061e-01	2.993151499999999743e-01	3.527381399999999778e-01	3.821122900000000211e-01	3.967968800000000185e-01	5.194469699999999523e-01	4.596095099999999989e-01	4.798060699999999734e-01	4.963575599999999755e-01	5.682933900000000094e-01	5.091217199999999998e-01	4.936212600000000061e-01	5.350083700000000109e-01	5.073343500000000450e-01	4.945111899999999894e-01	5.330602500000000132e-01	4.890195999999999987e-01	4.473001699999999969e-01	4.419904599999999739e-01	4.868243899999999957e-01	4.458346999999999727e-01	4.014437799999999723e-01	3.945932699999999960e-01	3.670228999999999853e-01	3.374898100000000012e-01	3.663699899999999787e-01	3.236431799999999748e-01	3.185443299999999867e-01	2.710326900000000205e-01	2.709978499999999846e-01	2.751973600000000020e-01	3.259512199999999860e-01	3.220951300000000073e-01	3.285353500000000038e-01	3.560236099999999904e-01	3.820258999999999738e-01	3.833005999999999913e-01	3.752584500000000212e-01	4.201005999999999907e-01	3.973259599999999780e-01	4.450496099999999844e-01	4.504749200000000009e-01	5.127601600000000204e-01	5.152260100000000120e-01	5.953960999999999837e-01	5.734862699999999647e-01	6.822900800000000210e-01	7.346169399999999960e-01	8.293557200000000185e-01	9.104360900000000312e-01	9.081553799999999566e-01
